ply
format ascii 1.0
element vertex 954
property float x
property float y
property float z
end_header
-0.00608452569913 -0.00279399928881 0.0128571145714
-0.00335261694017 -0.00154405223855 0.00710524752632
-0.00325702173773 -0.00150446115551 0.00692306169231
-0.00436718109711 -0.00202324086431 0.00931032434483
-0.00307982087465 -0.00143107280646 0.00658535136585
-0.00299754904537 -0.0013969996444 0.00642855728571
-0.0029191038128 -0.00136451128058 0.00627905595349
-0.00284422427262 -0.00133349966057 0.00613635013636
-0.002772672712 -0.00130386633478 0.0059999868
-0.00414648920282 -0.00195579950217 0.0089999802
-0.00248038160259 -0.0011734797013 0.00539998812
-0.00386385888044 -0.00183356203328 0.0084374814375
-0.00251567118814 -0.00119742826663 0.00551019195918
-0.00245784584527 -0.0011734797013 0.00539998812
-0.00266340644149 -0.00127552141446 0.00586955230435
-0.00259874681602 -0.00124838266096 0.00574466821277
-0.00253678134162 -0.00122237468885 0.005624987625
-0.00247734507026 -0.00119742826663 0.00551019195918
-0.00242028624975 -0.0011734797013 0.00539998812
-0.0402129055107 -0.0195579950217 0.089999802
-0.0300657801442 -0.0146684962662 0.0674998515
-0.0239775049243 -0.011734797013 0.0539998812
-0.0199186547777 -0.00977899751083 0.044999901
-0.0198560554519 -0.00977899751083 0.044999901
-0.019793456126 -0.00977899751083 0.044999901
-0.0169121629715 -0.00838199786643 0.0385713437143
-0.0168585064065 -0.00838199786643 0.0385713437143
-0.0130704387656 -0.00651933167389 0.029999934
-0.0117258352935 -0.0058673985065 0.0269999406
-0.01062570518 -0.00533399864227 0.0245454005455
-0.00970893008538 -0.00488949875542 0.0224999505
-0.00893319731303 -0.00451338346654 0.0207691850769
-0.0144694961393 -0.00733424813312 0.03374992575
-0.0164829104513 -0.00838199786643 0.0385713437143
-0.00718779857523 -0.00366712406656 0.016874962875
-0.00636828784713 -0.00325966583694 0.014999967
-0.00672079913489 -0.00345141088618 0.015882318
-0.0227755978676 -0.011734797013 0.0539998812
-0.0189170655638 -0.00977899751083 0.044999901
-0.00282816993569 -0.00146684962662 0.00674998515
-0.00751674676481 -0.00391159900433 0.0179999604
-0.0124861783908 -0.00651933167389 0.029999934
-0.0280000023904 -0.0146684962662 0.0674998515
-0.0101476739642 -0.00533399864227 0.0245454005455
-0.0370829392171 -0.0195579950217 0.089999802
-0.00852870936123 -0.00451338346654 0.0207691850769
-0.00736650838272 -0.00391159900433 0.0179999604
-0.00688262686159 -0.00366712406656 0.016874962875
-0.00914553615252 -0.00488949875542 0.0224999505
-0.00994280344318 -0.00533399864227 0.0245454005455
-0.0272488104799 -0.0146684962662 0.0674998515
-0.00724130973097 -0.00391159900433 0.0179999604
-0.00318364852968 -0.00172570544309 0.007941159
-0.00326874103194 -0.00177799954742 0.00818180018182
-0.00597182544993 -0.00325966583694 0.014999967
-0.00446321925598 -0.00244474937771 0.01124997525
-0.0213483332377 -0.011734797013 0.0539998812
-0.00212732140466 -0.0011734797013 0.00539998812
-0.00321183255387 -0.00177799954742 0.00818180018182
-0.0211229756645 -0.011734797013 0.0539998812
-0.0150341831953 -0.00838199786643 0.0385713437143
-0.0149805266303 -0.00838199786643 0.0385713437143
-0.0261220226142 -0.0146684962662 0.0674998515
-0.00867604120847 -0.00488949875542 0.0224999505
-0.0129671123183 -0.00733424813312 0.03374992575
-0.00738295018508 -0.00419099893321 0.0192856718571
-0.0128732133295 -0.00733424813312 0.03374992575
-0.00466409594003 -0.00266699932114 0.0122727002727
-0.00786419344042 -0.00451338346654 0.0207691850769
-0.00727563705501 -0.00419099893321 0.0192856718571
-0.00422847178396 -0.00244474937771 0.01124997525
-0.00777751745075 -0.00451338346654 0.0207691850769
-0.0335773769682 -0.0195579950217 0.089999802
-0.00501782674746 -0.00293369925325 0.0134999703
-0.0111089932216 -0.00651933167389 0.029999934
-0.00332017810129 -0.00195579950217 0.0089999802
-0.00551276372686 -0.00325966583694 0.014999967
-0.0038020827357 -0.00225669173327 0.0103845925385
-0.00393914220692 -0.0023469594026 0.01079997624
-0.00891845083798 -0.00533399864227 0.0245454005455
-0.00751748948174 -0.00451338346654 0.0207691850769
-0.00748859748518 -0.00451338346654 0.0207691850769
-0.00440800778873 -0.00266699932114 0.0122727002727
-0.00743081349207 -0.00451338346654 0.0207691850769
-0.00740192149551 -0.00451338346654 0.0207691850769
-0.00383397533945 -0.0023469594026 0.01079997624
-0.0036720687512 -0.00225669173327 0.0103845925385
-0.00339636398485 -0.00209549946661 0.00964283592857
-0.00411837372264 -0.00255104282891 0.0117391046087
-0.00248281578067 -0.00154405223855 0.00710524752632
-0.00293660636594 -0.00183356203328 0.0084374814375
-0.00267416593586 -0.00167639957329 0.00771426874286
-0.00202652634347 -0.00127552141446 0.00586955230435
-0.00197541735839 -0.00124838266096 0.00574466821277
-0.002150442323 -0.00136451128058 0.00627905595349
-0.00484702231231 -0.0030881044771 0.0142104950526
-0.00286618212434 -0.00183356203328 0.0084374814375
-0.00276794642495 -0.00177799954742 0.00818180018182
-0.00202148080152 -0.00130386633478 0.0059999868
-0.00232284718238 -0.00150446115551 0.00692306169231
-0.00820140401434 -0.00533399864227 0.0245454005455
-0.00213904400482 -0.0013969996444 0.00642855728571
-0.00559151576546 -0.00366712406656 0.016874962875
-0.00287382762232 -0.00189270919564 0.00870965825806
-0.00403241183349 -0.00266699932114 0.0122727002727
-0.00205435963678 -0.00136451128058 0.00627905595349
-0.00209433020063 -0.0013969996444 0.00642855728571
-0.00273707101472 -0.00183356203328 0.0084374814375
-0.0045900356061 -0.0030881044771 0.0142104950526
-0.00723625671338 -0.00488949875542 0.0224999505
-0.00205855915727 -0.0013969996444 0.00642855728571
-0.02869462955 -0.0195579950217 0.089999802
-0.00259722099075 -0.00177799954742 0.00818180018182
-0.00853326967396 -0.0058673985065 0.0269999406
-0.00772337279858 -0.00533399864227 0.0245454005455
-0.00241661442369 -0.00167639957329 0.00771426874286
-0.00647737760569 -0.00451338346654 0.0207691850769
-0.00598787949419 -0.00419099893321 0.0192856718571
-0.00198701707056 -0.0013969996444 0.00642855728571
-0.00755264736438 -0.00533399864227 0.0245454005455
-0.00258448515791 -0.00183356203328 0.0084374814375
-0.00249478573023 -0.00177799954742 0.00818180018182
-0.0032780933257 -0.0023469594026 0.01079997624
-0.00313756681489 -0.00225669173327 0.0103845925385
-0.00312312081662 -0.00225669173327 0.0103845925385
-0.00164950092402 -0.00119742826663 0.00551019195918
-0.00191547498385 -0.0013969996444 0.00642855728571
-0.00307978282178 -0.00225669173327 0.0103845925385
-0.0016603907794 -0.00122237468885 0.005624987625
-0.00168772683949 -0.00124838266096 0.00574466821277
-0.00438597586114 -0.00325966583694 0.014999967
-0.00174604376767 -0.00130386633478 0.0059999868
-0.00229989334088 -0.00172570544309 0.007941159
-0.00311283110539 -0.0023469594026 0.01079997624
-0.00407606219366 -0.0030881044771 0.0142104950526
-0.0192673964311 -0.0146684962662 0.0674998515
-0.0153387979538 -0.011734797013 0.0539998812
-0.00238494980668 -0.00183356203328 0.0084374814375
-0.0108489711227 -0.00838199786643 0.0385713437143
-0.00755672019034 -0.0058673985065 0.0269999406
-0.00578396968832 -0.00451338346654 0.0207691850769
-0.0124693349988 -0.00977899751083 0.044999901
-0.0106343448625 -0.00838199786643 0.0385713437143
-0.00352689609916 -0.00279399928881 0.0128571145714
-0.00320387922292 -0.00255104282891 0.0117391046087
-0.00523668758371 -0.00419099893321 0.0192856718571
-0.00331536500985 -0.00266699932114 0.0122727002727
-0.00483749561743 -0.00391159900433 0.0179999604
-0.00288747353225 -0.0023469594026 0.01079997624
-0.00256468722682 -0.00209549946661 0.00964283592857
-0.00375977086294 -0.0030881044771 0.0142104950526
-0.00338381192574 -0.00279399928881 0.0128571145714
-0.00642585949866 -0.00533399864227 0.0245454005455
-0.00781209539223 -0.00651933167389 0.029999934
-0.00437082891093 -0.00366712406656 0.016874962875
-0.00239854022826 -0.00202324086431 0.00931032434483
-0.0023855886436 -0.00202324086431 0.00931032434483
-0.00529280574685 -0.00451338346654 0.0207691850769
-0.00488791991099 -0.00419099893321 0.0192856718571
-0.00453701885324 -0.00391159900433 0.0179999604
-0.00483426334595 -0.00419099893321 0.0192856718571
-0.00448693939254 -0.00391159900433 0.0179999604
-0.00418303093331 -0.00366712406656 0.016874962875
-0.00391487641045 -0.00345141088618 0.015882318
-0.00367651683458 -0.00325966583694 0.014999967
-0.00346324774038 -0.0030881044771 0.0142104950526
-0.0032713055556 -0.00293369925325 0.0134999703
-0.00309764357889 -0.00279399928881 0.0128571145714
-0.00293976905461 -0.00266699932114 0.0122727002727
-0.00279562274984 -0.00255104282891 0.0117391046087
-0.00266348863712 -0.00244474937771 0.01124997525
-0.00254192525343 -0.0023469594026 0.01079997624
-0.00242971289925 -0.00225669173327 0.0103845925385
-0.00232581257131 -0.00217311055796 0.009999978
-0.00222933369536 -0.00209549946661 0.00964283592857
-0.00213950853499 -0.00202324086431 0.00931032434483
-0.00205567171865 -0.00195579950217 0.0089999802
-0.00197724372917 -0.00189270919564 0.00870965825806
-0.00190371748903 -0.00183356203328 0.0084374814375
-0.00183464738466 -0.00177799954742 0.00818180018182
-0.0017696402276 -0.00172570544309 0.007941159
-0.00170834776524 -0.00167639957329 0.00771426874286
-0.00165046043967 -0.00162983291847 0.0074999835
-0.00159570215873 -0.00158578338013 0.00729728124324
-0.00154382589257 -0.00154405223855 0.00710524752632
-0.00149460994775 -0.00150446115551 0.00692306169231
-0.00144785480018 -0.00146684962662 0.00674998515
-0.00140338039151 -0.00143107280646 0.00658535136585
-0.00136102381182 -0.0013969996444 0.00642855728571
-0.00132063730561 -0.00136451128058 0.00627905595349
-0.00128208654969 -0.00133349966057 0.00613635013636
-0.00124524916069 -0.00130386633478 0.0059999868
-0.0012100133973 -0.00127552141446 0.00586955230435
-0.00117627702809 -0.00124838266096 0.00574466821277
-0.00114394634094 -0.00122237468885 0.005624987625
-0.00111293527367 -0.00119742826663 0.00551019195918
-0.00108316464909 -0.0011734797013 0.00539998812
-0.00107565272999 -0.0011734797013 0.00539998812
-0.00106814081088 -0.0011734797013 0.00539998812
-0.00757592065557 -0.00838199786643 0.0385713437143
-0.00752226409054 -0.00838199786643 0.0385713437143
-0.00653503158482 -0.00733424813312 0.03374992575
-0.00648808209041 -0.00733424813312 0.03374992575
-0.00644113259601 -0.00733424813312 0.03374992575
-0.0063941831016 -0.00733424813312 0.03374992575
-0.00846297814293 -0.00977899751083 0.044999901
-0.00630028411279 -0.00733424813312 0.03374992575
-0.00454787972246 -0.00533399864227 0.0245454005455
-0.00620638512398 -0.00733424813312 0.03374992575
-0.00379042192589 -0.00451338346654 0.0207691850769
-0.00444544446194 -0.00533399864227 0.0245454005455
-0.00303276832038 -0.00366712406656 0.016874962875
-0.00370374593622 -0.00451338346654 0.0207691850769
-0.00367485393967 -0.00451338346654 0.0207691850769
-0.00430886411458 -0.00533399864227 0.0245454005455
-0.0039184924421 -0.00488949875542 0.0224999505
-0.00333187952499 -0.00419099893321 0.0192856718571
-0.00289191983717 -0.00366712406656 0.016874962875
-0.00458951214394 -0.0058673985065 0.0269999406
-0.000910390509684 -0.0011734797013 0.00539998812
-0.0150479765097 -0.0195579950217 0.089999802
-0.00447683335737 -0.0058673985065 0.0269999406
-0.0088785475237 -0.011734797013 0.0539998812
-0.00733619027721 -0.00977899751083 0.044999901
-0.00623450652972 -0.00838199786643 0.0385713437143
-0.0054082437191 -0.00733424813312 0.03374992575
-0.00476559486639 -0.00651933167389 0.029999934
-0.00425147578423 -0.0058673985065 0.0269999406
-0.0140463872957 -0.0195579950217 0.089999802
-0.00348029716098 -0.00488949875542 0.0224999505
-0.00376254272514 -0.00533399864227 0.0245454005455
-0.0037283976383 -0.00533399864227 0.0245454005455
-0.00338639817217 -0.00488949875542 0.0224999505
-0.0760197199103 -0.0194327963699 0.089999802
-0.0455367127551 -0.0116596778219 0.0539998812
-0.0324725668315 -0.00832834130139 0.0385713437143
-0.00945551549438 -0.00242909954624 0.01124997525
-0.00809131342535 -0.00208208532535 0.00964283592857
-0.00753937266515 -0.00194327963699 0.0089999802
-0.00728405109676 -0.00188059319709 0.00870965825806
-0.00704468712638 -0.00182182465968 0.0084374814375
-0.00865593815727 -0.00224224573499 0.0103845925385
-0.00832143689384 -0.00215919959666 0.009999978
-0.00640866286224 -0.00166566826028 0.00771426874286
-0.00639793154923 -0.00166566826028 0.00771426874286
-0.00638720023623 -0.00166566826028 0.00771426874286
-0.00637646892322 -0.00166566826028 0.00771426874286
-0.0117263587557 -0.00306833626893 0.0142104950526
-0.012356956689 -0.00323879939499 0.014999967
-0.0116868223393 -0.00306833626893 0.0142104950526
-0.0110837014246 -0.00291491945549 0.0134999703
-0.0368830720894 -0.00971639818496 0.044999901
-0.0200838942347 -0.00529985355543 0.0245454005455
-0.00596073623314 -0.0015756321381 0.00729728124324
-0.0046845030781 -0.00124039125765 0.00574466821277
-0.00578410654515 -0.00153416813447 0.00710524752632
-0.00535171836001 -0.00142191192951 0.00658535136585
-0.0044703032001 -0.00118976304306 0.00551019195918
-0.0121482922694 -0.00323879939499 0.014999967
-0.00436587329789 -0.00116596778219 0.00539998812
-0.0114693720494 -0.00306833626893 0.0142104950526
-0.0108771236492 -0.00291491945549 0.0134999703
-0.0135729298143 -0.00364364931936 0.016874962875
-0.00637621414922 -0.00171465850323 0.007941159
-0.00655805106419 -0.00176661785181 0.00818180018182
-0.0063541202695 -0.00171465850323 0.007941159
-0.00616184266308 -0.00166566826028 0.00771426874286
-0.0538222243132 -0.0145745972774 0.0674998515
-0.00934405657815 -0.00253471256999 0.0117391046087
-0.00715125684474 -0.00194327963699 0.0089999802
-0.00648976089051 -0.00176661785181 0.00818180018182
-0.0152704652451 -0.0041641706507 0.0192856718571
-0.012553583381 -0.00342931700646 0.015882318
-0.00560619267161 -0.00153416813447 0.00710524752632
-0.00685999114729 -0.00188059319709 0.00870965825806
-0.00707613765369 -0.00194327963699 0.0089999802
-0.0211908533656 -0.00582983891097 0.0269999406
-0.0302189911 -0.00832834130139 0.0385713437143
-0.0140771561163 -0.00388655927398 0.0179999604
-0.00619946311146 -0.00171465850323 0.007941159
-0.00539502948294 -0.00149483048999 0.00692306169231
-0.00552711983893 -0.00153416813447 0.00710524752632
-0.0104827478962 -0.00291491945549 0.0134999703
-0.0110147032615 -0.00306833626893 0.0142104950526
-0.0174086471678 -0.00485819909248 0.0224999505
-0.016040628466 -0.00448449146998 0.0207691850769
-0.0148680410074 -0.0041641706507 0.0192856718571
-0.0138517985432 -0.00388655927398 0.0179999604
-0.012962586387 -0.00364364931936 0.016874962875
-0.0121779874257 -0.00342931700646 0.015882318
-0.0114805661268 -0.00323879939499 0.014999967
-0.0108565575962 -0.00306833626893 0.0142104950526
-0.0102949499186 -0.00291491945549 0.0134999703
-0.0097868286865 -0.00277611376713 0.0128571145714
-0.00932490029369 -0.00264992677772 0.0122727002727
-0.00890313958722 -0.00253471256999 0.0117391046087
-0.00851652560628 -0.00242909954624 0.01124997525
-0.00816084074382 -0.00233193556439 0.01079997624
-0.00783251625539 -0.00224224573499 0.0103845925385
-0.00752851209944 -0.00215919959666 0.009999978
-0.00724622252606 -0.00208208532535 0.00964283592857
-0.00698340119912 -0.00201028927965 0.00931032434483
-0.00673810129398 -0.00194327963699 0.0089999802
-0.00650862718916 -0.00188059319709 0.00870965825806
-0.0062934952159 -0.00182182465968 0.0084374814375
-0.00609140154405 -0.00176661785181 0.00818180018182
-0.00590119573524 -0.00171465850323 0.007941159
-0.0057218588298 -0.00166566826028 0.00771426874286
-0.00555248508577 -0.00161939969749 0.0074999835
-0.00539226667926 -0.0015756321381 0.00729728124324
-0.0153183285521 -0.00448449146998 0.0207691850769
-0.00473244464815 -0.00138805688357 0.00642855728571
-0.0247983849084 -0.00728729863872 0.03374992575
-0.0220012759235 -0.00647759878997 0.029999934
-0.00420501887992 -0.00124039125765 0.00574466821277
-0.0197260291401 -0.00582983891097 0.0269999406
-0.0178986086769 -0.00529985355543 0.0245454005455
-0.00409393957272 -0.00121454977312 0.005624987625
-0.00980667517677 -0.00291491945549 0.0134999703
-0.0150583005831 -0.00448449146998 0.0207691850769
-0.00407046482552 -0.00121454977312 0.005624987625
-0.00397972889122 -0.00118976304306 0.00551019195918
-0.00389262239429 -0.00116596778219 0.00539998812
-0.0215839470844 -0.00647759878997 0.029999934
-0.0176254479822 -0.00529985355543 0.0245454005455
-0.0175913028953 -0.00529985355543 0.0245454005455
-0.00386257471787 -0.00116596778219 0.00539998812
-0.00385506279877 -0.00116596778219 0.00539998812
-0.00384755087966 -0.00116596778219 0.00539998812
-0.00384003896056 -0.00116596778219 0.00539998812
-0.00383252704145 -0.00116596778219 0.00539998812
-0.00382501512235 -0.00116596778219 0.00539998812
-0.0095437580081 -0.00291491945549 0.0134999703
-0.0158749636839 -0.00485819909248 0.0224999505
-0.0146249206347 -0.00448449146998 0.0207691850769
-0.00654304732056 -0.00201028927965 0.00931032434483
-0.00823359897135 -0.00253471256999 0.0117391046087
-0.00629990601286 -0.00194327963699 0.0089999802
-0.00992745181214 -0.00306833626893 0.0142104950526
-0.0104581104709 -0.00323879939499 0.014999967
-0.00507757817622 -0.0015756321381 0.00729728124324
-0.0037498959313 -0.00116596778219 0.00539998812
-0.018711920061 -0.00582983891097 0.0269999406
-0.0143648926657 -0.00448449146998 0.0207691850769
-0.00372736017398 -0.00116596778219 0.00539998812
-0.0143071086726 -0.00448449146998 0.0207691850769
-0.00421856401793 -0.00132496338886 0.00613635013636
-0.0154367684028 -0.00485819909248 0.0224999505
-0.0142204326829 -0.00448449146998 0.0207691850769
-0.0131778592088 -0.0041641706507 0.0192856718571
-0.0122742955312 -0.00388655927398 0.0179999604
-0.0114836773133 -0.00364364931936 0.016874962875
-0.0458408102643 -0.0145745972774 0.0674998515
-0.0304979408503 -0.00971639818496 0.044999901
-0.0070235403518 -0.00224224573499 0.0103845925385
-0.00674949826635 -0.00215919959666 0.009999978
-0.00649503061558 -0.00208208532535 0.00964283592857
-0.00625811245797 -0.00201028927965 0.00931032434483
-0.00603698884419 -0.00194327963699 0.0089999802
-0.0258191527672 -0.00832834130139 0.0385713437143
-0.0163962248559 -0.00529985355543 0.0245454005455
-0.00749928656084 -0.00242909954624 0.01124997525
-0.0138159447311 -0.00448449146998 0.0207691850769
-0.00640113162677 -0.00208208532535 0.00964283592857
-0.0178856089594 -0.00582983891097 0.0269999406
-0.00594934978797 -0.00194327963699 0.0089999802
-0.0104767586873 -0.00342931700646 0.015882318
-0.0104546648076 -0.00342931700646 0.015882318
-0.00454753091727 -0.00149483048999 0.00692306169231
-0.0252825871169 -0.00832834130139 0.0385713437143
-0.0220753142329 -0.00728729863872 0.03374992575
-0.0195807686564 -0.00647759878997 0.029999934
-0.00450900825519 -0.00149483048999 0.00692306169231
-0.00408083083715 -0.00135577649092 0.00627905595349
-0.0175100130042 -0.00582983891097 0.0269999406
-0.0158840485533 -0.00529985355543 0.0245454005455
-0.0290581563553 -0.00971639818496 0.044999901
-0.00869866710881 -0.00291491945549 0.0134999703
-0.0247996780316 -0.00832834130139 0.0385713437143
-0.0346444300532 -0.0116596778219 0.0539998812
-0.00454859353449 -0.00153416813447 0.00710524752632
-0.00442233226552 -0.00149483048999 0.00692306169231
-0.00956085346667 -0.00323879939499 0.014999967
-0.0190799740494 -0.00647759878997 0.029999934
-0.0155767427718 -0.00529985355543 0.0245454005455
-0.011397904969 -0.00388655927398 0.0179999604
-0.00682371914317 -0.00233193556439 0.01079997624
-0.00607919223657 -0.00208208532535 0.00964283592857
-0.00629043654328 -0.00215919959666 0.009999978
-0.00605236395405 -0.00208208532535 0.00964283592857
-0.00412416084776 -0.00142191192951 0.00658535136585
-0.00733543473056 -0.00253471256999 0.0117391046087
-0.00673357611391 -0.00233193556439 0.01079997624
-0.0209954758616 -0.00728729863872 0.03374992575
-0.00507843063446 -0.00176661785181 0.00818180018182
-0.0209015768727 -0.00728729863872 0.03374992575
-0.00538183932344 -0.00188059319709 0.00870965825806
-0.00616523789154 -0.00215919959666 0.009999978
-0.015098711556 -0.00529985355543 0.0245454005455
-0.0057141459021 -0.00201028927965 0.00931032434483
-0.00551115450686 -0.00194327963699 0.0089999802
-0.00532125933066 -0.00188059319709 0.00870965825806
-0.00567529114811 -0.00201028927965 0.00931032434483
-0.00547359491133 -0.00194327963699 0.0089999802
-0.00528491133499 -0.00188059319709 0.00870965825806
-0.00408641638574 -0.00145745972774 0.00674998515
-0.0049418502871 -0.00176661785181 0.00818180018182
-0.0038739396076 -0.00138805688357 0.00642855728571
-0.0124869128895 -0.00448449146998 0.0207691850769
-0.00449872976691 -0.00161939969749 0.0074999835
-0.00359063723674 -0.00129551975799 0.0059999868
-0.00671679498742 -0.00242909954624 0.01124997525
-0.00349624964658 -0.00126735628499 0.00586955230435
-0.00534839625959 -0.00194327963699 0.0089999802
-0.0228680416903 -0.00832834130139 0.0385713437143
-0.0177445217641 -0.00647759878997 0.029999934
-0.00338989574302 -0.00124039125765 0.00574466821277
-0.00361248872652 -0.00132496338886 0.00613635013636
-0.0226534154302 -0.00832834130139 0.0385713437143
-0.0225997588652 -0.00832834130139 0.0385713437143
-0.0175358573446 -0.00647759878997 0.029999934
-0.00328014833637 -0.00121454977312 0.005624987625
-0.00314143048381 -0.00116596778219 0.00539998812
-0.00423502508744 -0.0015756321381 0.00729728124324
-0.00411369295474 -0.00153416813447 0.00710524752632
-0.022277819475 -0.00832834130139 0.0385713437143
-0.0311138280739 -0.0116596778219 0.0539998812
-0.00369508439082 -0.00138805688357 0.00642855728571
-0.00673121515039 -0.00253471256999 0.0117391046087
-0.00359168261637 -0.00135577649092 0.00627905595349
-0.00334927731627 -0.00126735628499 0.00586955230435
-0.0153691160593 -0.00582983891097 0.0269999406
-0.0109511117599 -0.0041641706507 0.0192856718571
-0.00364142782578 -0.00138805688357 0.00642855728571
-0.00953527329548 -0.00364364931936 0.016874962875
-0.00411321018304 -0.0015756321381 0.00729728124324
-0.00370276050773 -0.00142191192951 0.00658535136585
-0.00797039920326 -0.00306833626893 0.0142104950526
-0.0215802841295 -0.00832834130139 0.0385713437143
-0.0215266275645 -0.00832834130139 0.0385713437143
-0.0167011996662 -0.00647759878997 0.029999934
-0.0166594667823 -0.00647759878997 0.029999934
-0.0078715581624 -0.00306833626893 0.0142104950526
-0.00596736036522 -0.00233193556439 0.01079997624
-0.0212583447393 -0.00832834130139 0.0385713437143
-0.00570895450846 -0.00224224573499 0.0103845925385
-0.00987048141765 -0.00388655927398 0.0179999604
-0.0210973750442 -0.00832834130139 0.0385713437143
-0.0184132536693 -0.00728729863872 0.03374992575
-0.00544186790367 -0.00215919959666 0.009999978
-0.00418728106982 -0.00166566826028 0.00771426874286
-0.0039507903105 -0.0015756321381 0.00729728124324
-0.00394063906847 -0.0015756321381 0.00729728124324
-0.00661036588991 -0.00264992677772 0.0122727002727
-0.00467911140719 -0.00188059319709 0.00870965825806
-0.00803760320375 -0.00323879939499 0.014999967
-0.00424415475624 -0.00171465850323 0.007941159
-0.00399793515992 -0.00161939969749 0.0074999835
-0.00333837371632 -0.00135577649092 0.00627905595349
-0.00386958037423 -0.0015756321381 0.00729728124324
-0.00509995992469 -0.00208208532535 0.00964283592857
-0.023737213656 -0.00971639818496 0.044999901
-0.0202925265687 -0.00832834130139 0.0385713437143
-0.0202388700037 -0.00832834130139 0.0385713437143
-0.0201852134386 -0.00832834130139 0.0385713437143
-0.0469736327051 -0.0194327963699 0.089999802
-0.0234242170267 -0.00971639818496 0.044999901
-0.0280339412409 -0.0116596778219 0.0539998812
-0.0199705871785 -0.00832834130139 0.0385713437143
-0.0154909460327 -0.00647759878997 0.029999934
-0.0231738197232 -0.00971639818496 0.044999901
-0.0198096174834 -0.00832834130139 0.0385713437143
-0.0153657473809 -0.00647759878997 0.029999934
-0.0137916130473 -0.00582983891097 0.0269999406
-0.0125036849562 -0.00529985355543 0.0245454005455
-0.0114304115469 -0.00485819909248 0.0224999505
-0.0105222571237 -0.00448449146998 0.0207691850769
-0.00974383904659 -0.0041641706507 0.0192856718571
-0.00906921004647 -0.00388655927398 0.0179999604
-0.00847890967136 -0.00364364931936 0.016874962875
-0.00795805639921 -0.00342931700646 0.015882318
-0.0449704542771 -0.0194327963699 0.089999802
-0.033633941719 -0.0145745972774 0.0674998515
-0.0335400427302 -0.0145745972774 0.0674998515
-0.0267569149931 -0.0116596778219 0.0539998812
-0.0190584255729 -0.00832834130139 0.0385713437143
-0.0190047690079 -0.00832834130139 0.0385713437143
-0.0147397541222 -0.00647759878997 0.029999934
-0.0132282191145 -0.00582983891097 0.0269999406
-0.0119915086536 -0.00529985355543 0.0245454005455
-0.00487151849015 -0.00215919959666 0.009999978
-0.0100888771753 -0.00448449146998 0.0207691850769
-0.00467070740442 -0.00208208532535 0.00964283592857
-0.00869361409123 -0.00388655927398 0.0179999604
-0.00812678846333 -0.00364364931936 0.016874962875
-0.00762664820341 -0.00342931700646 0.015882318
-0.00760455432369 -0.00342931700646 0.015882318
-0.00716121264153 -0.00323879939499 0.014999967
-0.00642631157961 -0.00291491945549 0.0134999703
-0.00640753178185 -0.00291491945549 0.0134999703
-0.00608452569913 -0.00277611376713 0.0128571145714
-0.00553910624898 -0.00253471256999 0.0117391046087
-0.00552277599006 -0.00253471256999 0.0117391046087
-0.00506593007264 -0.00233193556439 0.01079997624
-0.00485664061003 -0.00224224573499 0.0103845925385
-0.00466285407058 -0.00215919959666 0.009999978
-0.00464894310927 -0.00215919959666 0.009999978
-0.00446949528554 -0.00208208532535 0.00964283592857
-0.00430242317379 -0.00201028927965 0.00931032434483
-0.00414648920282 -0.00194327963699 0.0089999802
-0.00263870383254 -0.00124039125765 0.00574466821277
-0.00257590592029 -0.00121454977312 0.005624987625
-0.00373539055209 -0.00176661785181 0.00818180018182
-0.00261472962263 -0.00124039125765 0.00574466821277
-0.00422471366581 -0.00201028927965 0.00931032434483
-0.00407137001177 -0.00194327963699 0.0089999802
-0.00392791949671 -0.00188059319709 0.00870965825806
-0.0404633028142 -0.0194327963699 0.089999802
-0.0302535781219 -0.0145745972774 0.0674998515
-0.0241277433064 -0.0116596778219 0.0539998812
-0.0240526241154 -0.0116596778219 0.0539998812
-0.0199812541036 -0.00971639818496 0.044999901
-0.0199186547777 -0.00971639818496 0.044999901
-0.0198560554519 -0.00971639818496 0.044999901
-0.0237521473512 -0.0116596778219 0.0539998812
-0.0236770281602 -0.0116596778219 0.0539998812
-0.00236019089691 -0.00116596778219 0.00539998812
-0.0196056581484 -0.00971639818496 0.044999901
-0.0195430588225 -0.00971639818496 0.044999901
-0.01062570518 -0.00529985355543 0.0245454005455
-0.0129452401138 -0.00647759878997 0.029999934
-0.00967763042244 -0.00485819909248 0.0224999505
-0.0115755969114 -0.00582983891097 0.0269999406
-0.00311838846375 -0.0015756321381 0.00729728124324
-0.00766698514691 -0.00388655927398 0.0179999604
-0.0127365756943 -0.00647759878997 0.029999934
-0.038084528431 -0.0194327963699 0.089999802
-0.0284694973345 -0.0145745972774 0.0674998515
-0.0189170655638 -0.00971639818496 0.044999901
-0.0377089324758 -0.0194327963699 0.089999802
-0.00256252730619 -0.00132496338886 0.00613635013636
-0.0224751211034 -0.0116596778219 0.0539998812
-0.00658823585657 -0.00342931700646 0.015882318
-0.0186040689344 -0.00971639818496 0.044999901
-0.0158926882359 -0.00832834130139 0.0385713437143
-0.00852870936123 -0.00448449146998 0.0207691850769
-0.0122775139712 -0.00647759878997 0.029999934
-0.0110122029785 -0.00582983891097 0.0269999406
-0.0137183042288 -0.00728729863872 0.03374992575
-0.00607615765972 -0.00323879939499 0.014999967
-0.00726634946132 -0.00388655927398 0.0179999604
-0.0217239291929 -0.0116596778219 0.0539998812
-0.00492018409133 -0.00264992677772 0.0122727002727
-0.0053934227027 -0.00291491945549 0.0134999703
-0.00597182544993 -0.00323879939499 0.014999967
-0.00535586310718 -0.00291491945549 0.0134999703
-0.0177902776981 -0.00971639818496 0.044999901
-0.0151951528904 -0.00832834130139 0.0385713437143
-0.0058883596821 -0.00323879939499 0.014999967
-0.0211229756645 -0.0116596778219 0.0539998812
-0.0116932535964 -0.00647759878997 0.029999934
-0.0131079608015 -0.00728729863872 0.03374992575
-0.0116097878285 -0.00647759878997 0.029999934
-0.0148732135002 -0.00832834130139 0.0385713437143
-0.0259342246366 -0.0145745972774 0.0674998515
-0.0114845891768 -0.00647759878997 0.029999934
-0.0102985706636 -0.00582983891097 0.0269999406
-0.00932819188006 -0.00529985355543 0.0245454005455
-0.0127793143407 -0.00728729863872 0.03374992575
-0.0113176576411 -0.00647759878997 0.029999934
-0.00676555485433 -0.00388655927398 0.0179999604
-0.00674051512398 -0.00388655927398 0.0179999604
-0.00530169110024 -0.00306833626893 0.0142104950526
-0.00627228343433 -0.00364364931936 0.016874962875
-0.0052621546839 -0.00306833626893 0.0142104950526
-0.00905503118534 -0.00529985355543 0.0245454005455
-0.00826914559029 -0.00485819909248 0.0224999505
-0.00760416547141 -0.00448449146998 0.0207691850769
-0.0196957110346 -0.0116596778219 0.0539998812
-0.00817524660148 -0.00485819909248 0.0224999505
-0.00195454726525 -0.00116596778219 0.00539998812
-0.00695369766481 -0.0041641706507 0.0192856718571
-0.00808134761267 -0.00485819909248 0.0224999505
-0.00743081349207 -0.00448449146998 0.0207691850769
-0.00300703060755 -0.00182182465968 0.0084374814375
-0.00737302949895 -0.00448449146998 0.0207691850769
-0.0028931450767 -0.00176661785181 0.00818180018182
-0.00279700563458 -0.00171465850323 0.007941159
-0.00270635987488 -0.00166566826028 0.00771426874286
-0.00262074999071 -0.00161939969749 0.0074999835
-0.00268489724886 -0.00166566826028 0.00771426874286
-0.002079906839 -0.00129551975799 0.0059999868
-0.00216791190232 -0.00135577649092 0.00627905595349
-0.00299498760789 -0.00188059319709 0.00870965825806
-0.00462345099446 -0.00291491945549 0.0134999703
-0.00209303236214 -0.00132496338886 0.00613635013636
-0.00458589139894 -0.00291491945549 0.0134999703
-0.00222785931765 -0.00142191192951 0.00658535136585
-0.00349871677186 -0.00224224573499 0.0103845925385
-0.00196937043724 -0.00126735628499 0.00586955230435
-0.00311087738475 -0.00201028927965 0.00931032434483
-0.00691075755404 -0.00448449146998 0.0207691850769
-0.00639030373195 -0.0041641706507 0.0192856718571
-0.004949369794 -0.00323879939499 0.014999967
-0.00197140134082 -0.00129551975799 0.0059999868
-0.00176674928763 -0.00116596778219 0.00539998812
-0.00191221453101 -0.00126735628499 0.00586955230435
-0.0029195424157 -0.00194327963699 0.0089999802
-0.00872106765158 -0.00582983891097 0.0269999406
-0.00201942047815 -0.00135577649092 0.00627905595349
-0.00196498828649 -0.00132496338886 0.00613635013636
-0.00307442459465 -0.00208208532535 0.00964283592857
-0.00857082926949 -0.00582983891097 0.0269999406
-0.00775751788542 -0.00529985355543 0.0245454005455
-0.0065351615988 -0.00448449146998 0.0207691850769
-0.00704845873576 -0.00485819909248 0.0224999505
-0.00647737760569 -0.00448449146998 0.0207691850769
-0.00558868752791 -0.00388655927398 0.0179999604
-0.00208636792409 -0.00145745972774 0.00674998515
-0.00395614861944 -0.00277611376713 0.0128571145714
-0.00175964946921 -0.00124039125765 0.00574466821277
-0.00357947517816 -0.00253471256999 0.0117391046087
-0.00630402562635 -0.00448449146998 0.0207691850769
-0.00627513362979 -0.00448449146998 0.0207691850769
-0.010150142654 -0.00728729863872 0.03374992575
-0.0202063863192 -0.0145745972774 0.0674998515
-0.00893888325795 -0.00647759878997 0.029999934
-0.00667286278052 -0.00485819909248 0.0224999505
-0.00169571824279 -0.00124039125765 0.00574466821277
-0.00317292645823 -0.00233193556439 0.01079997624
-0.00272232984485 -0.00201028927965 0.00931032434483
-0.00157143939091 -0.00116596778219 0.00539998812
-0.00601510566078 -0.00448449146998 0.0207691850769
-0.0015564155527 -0.00116596778219 0.00539998812
-0.00242016192749 -0.00182182465968 0.0084374814375
-0.00233544199165 -0.00176661785181 0.00818180018182
-0.00852155441879 -0.00647759878997 0.029999934
-0.0254394646046 -0.0194327963699 0.089999802
-0.00210952216274 -0.00161939969749 0.0074999835
-0.00581286168488 -0.00448449146998 0.0207691850769
-0.00197872647232 -0.00153416813447 0.00710524752632
-0.00415644499961 -0.00323879939499 0.014999967
-0.00437884788457 -0.00342931700646 0.015882318
-0.00493765453883 -0.00388655927398 0.0179999604
-0.00368446110636 -0.00291491945549 0.0134999703
-0.00666487510654 -0.00529985355543 0.0245454005455
-0.00607816918473 -0.00485819909248 0.0224999505
-0.00453515214134 -0.00364364931936 0.016874962875
-0.00424628460625 -0.00342931700646 0.015882318
-0.00224410132347 -0.00182182465968 0.0084374814375
-0.00420209684681 -0.00342931700646 0.015882318
-0.00323000229275 -0.00264992677772 0.0122727002727
-0.00504888960609 -0.0041641706507 0.0192856718571
-0.00439430365813 -0.00364364931936 0.016874962875
-0.00411372132793 -0.00342931700646 0.015882318
-0.00409162744821 -0.00342931700646 0.015882318
-0.00384344837024 -0.00323879939499 0.014999967
-0.00404743968877 -0.00342931700646 0.015882318
-0.0052639137503 -0.00448449146998 0.0207691850769
-0.00486109162847 -0.0041641706507 0.0192856718571
-0.00451197912289 -0.00388655927398 0.0179999604
-0.00420650568051 -0.00364364931936 0.016874962875
-0.00393697029017 -0.00342931700646 0.015882318
-0.00369738327654 -0.00323879939499 0.014999967
-0.00348301594855 -0.00306833626893 0.0142104950526
-0.00329008535336 -0.00291491945549 0.0134999703
-0.00311552910057 -0.00277611376713 0.0128571145714
-0.00295684159803 -0.00264992677772 0.0122727002727
-0.00281195300876 -0.00253471256999 0.0117391046087
-0.00267913846859 -0.00242909954624 0.01124997525
-0.00255694909164 -0.00233193556439 0.01079997624
-0.00244415889753 -0.00224224573499 0.0103845925385
-0.00233972353261 -0.00215919959666 0.009999978
-0.00224274783662 -0.00208208532535 0.00964283592857
-0.00215246011966 -0.00201028927965 0.00931032434483
-0.00206819158383 -0.00194327963699 0.0089999802
-0.00198935972773 -0.00188059319709 0.00870965825806
-0.00191545486263 -0.00182182465968 0.0084374814375
-0.00184602908027 -0.00176661785181 0.00818180018182
-0.00178068716746 -0.00171465850323 0.007941159
-0.00171907907824 -0.00166566826028 0.00771426874286
-0.00166089366065 -0.00161939969749 0.0074999835
-0.00160585340076 -0.0015756321381 0.00729728124324
-0.00155370999665 -0.00153416813447 0.00710524752632
-0.00150424061327 -0.00149483048999 0.00692306169231
-0.00145724469906 -0.00145745972774 0.00674998515
-0.00141254126847 -0.00142191192951 0.00658535136585
-0.00136996657266 -0.00138805688357 0.00642855728571
-0.00132937209527 -0.00135577649092 0.00627905595349
-0.0012906228214 -0.00132496338886 0.00613635013636
-0.00125359573747 -0.00129551975799 0.0059999868
-0.00121817852676 -0.00126735628499 0.00586955230435
-0.0011842684314 -0.00124039125765 0.00574466821277
-0.00115177125668 -0.00121454977312 0.005624987625
-0.00112060049725 -0.00118976304306 0.00551019195918
-0.0010906765682 -0.00116596778219 0.00539998812
-0.00108316464909 -0.00116596778219 0.00539998812
-0.00107565272999 -0.00116596778219 0.00539998812
-0.00106814081088 -0.00116596778219 0.00539998812
-0.00662893057363 -0.00728729863872 0.03374992575
-0.00752226409054 -0.00832834130139 0.0385713437143
-0.00653503158482 -0.00728729863872 0.03374992575
-0.00648808209041 -0.00728729863872 0.03374992575
-0.00644113259601 -0.00728729863872 0.03374992575
-0.0063941831016 -0.00728729863872 0.03374992575
-0.00846297814293 -0.00971639818496 0.044999901
-0.00504022729023 -0.00582983891097 0.0269999406
-0.00454787972246 -0.00529985355543 0.0245454005455
-0.00620638512398 -0.00728729863872 0.03374992575
-0.00379042192589 -0.00448449146998 0.0207691850769
-0.00444544446194 -0.00529985355543 0.0245454005455
-0.00303276832038 -0.00364364931936 0.016874962875
-0.00320991314473 -0.00388655927398 0.0179999604
-0.00367485393967 -0.00448449146998 0.0207691850769
-0.00394979210503 -0.00485819909248 0.0224999505
-0.0039184924421 -0.00485819909248 0.0224999505
-0.00358817794999 -0.00448449146998 0.0207691850769
-0.00289191983717 -0.00364364931936 0.016874962875
-0.00269971302585 -0.00342931700646 0.015882318
-0.000910390509684 -0.00116596778219 0.00539998812
-0.0150479765097 -0.0194327963699 0.089999802
-0.0111920833934 -0.0145745972774 0.0674998515
-0.0088785475237 -0.0116596778219 0.0539998812
-0.0110042854158 -0.0145745972774 0.0674998515
-0.00623450652972 -0.00832834130139 0.0385713437143
-0.0054082437191 -0.00728729863872 0.03374992575
-0.00476559486639 -0.00647759878997 0.029999934
-0.00425147578423 -0.00582983891097 0.0269999406
-0.00383083289882 -0.00529985355543 0.0245454005455
-0.00417635659318 -0.00582983891097 0.0269999406
-0.0137959899922 -0.0194327963699 0.089999802
-0.0102530935053 -0.0145745972774 0.0674998515
-0.00812735561322 -0.0116596778219 0.0539998812
-0.0760197199103 -0.0193075977182 0.089999802
-0.0103492528989 -0.0026328542343 0.0122727002727
-0.00988295512262 -0.00251838231107 0.0117391046087
-0.075644123955 -0.0193075977182 0.089999802
-0.00871372215038 -0.00222779973671 0.0103845925385
-0.00942421583144 -0.00241344971477 0.01124997525
-0.0150537056 -0.00386151954363 0.0179999604
-0.0173407683111 -0.00445559947342 0.0207691850769
-0.0132384936523 -0.00340722312674 0.015882318
-0.0449357592267 -0.0115845586309 0.0539998812
-0.0320433143112 -0.00827468473636 0.0385713437143
-0.00622021122842 -0.00160896647651 0.0074999835
-0.0279440010335 -0.00724034914431 0.03374992575
-0.0117461269638 -0.00304856806076 0.0142104950526
-0.00618891156549 -0.00160896647651 0.0074999835
-0.0556063051006 -0.0144806982886 0.0674998515
-0.0555124061118 -0.0144806982886 0.0674998515
-0.0738913428306 -0.0193075977182 0.089999802
-0.00526901029849 -0.00137911412273 0.00642855728571
-0.0138076772863 -0.00362017457216 0.016874962875
-0.00612631223961 -0.00160896647651 0.0074999835
-0.0059505849911 -0.00156548089607 0.00729728124324
-0.00563579612091 -0.00148519982447 0.00692306169231
-0.010971022638 -0.00289613965773 0.0134999703
-0.00730149522684 -0.00193075977182 0.0089999802
-0.00455560960104 -0.00120672485739 0.005624987625
-0.00445497275295 -0.00118209781948 0.00551019195918
-0.0544795172348 -0.0144806982886 0.0674998515
-0.00453213485384 -0.00120672485739 0.005624987625
-0.0271458596286 -0.00724034914431 0.03374992575
-0.00699326713141 -0.00186847719853 0.00870965825806
-0.00655805106419 -0.0017552361562 0.00818180018182
-0.0063541202695 -0.00170361156337 0.007941159
-0.00616184266308 -0.00165493694727 0.00771426874286
-0.00598024714591 -0.00160896647651 0.0074999835
-0.00580846760263 -0.00156548089607 0.00729728124324
-0.00858150821369 -0.00231691172618 0.01079997624
-0.0152972935276 -0.00413734236818 0.0192856718571
-0.00454864922195 -0.00123239985435 0.00574466821277
-0.00609745478504 -0.00165493694727 0.00771426874286
-0.00591764782003 -0.00160896647651 0.0074999835
-0.0125093956215 -0.00340722312674 0.015882318
-0.00558642446344 -0.00152428403038 0.00710524752632
-0.0302726476651 -0.00827468473636 0.0385713437143
-0.00431699872858 -0.00118209781948 0.00551019195918
-0.00639870732561 -0.0017552361562 0.00818180018182
-0.0175651454825 -0.00482689942954 0.0224999505
-0.00841624599338 -0.00231691172618 0.01079997624
-0.00477342167908 -0.00131642711715 0.00613635013636
-0.0149753541374 -0.00413734236818 0.0192856718571
-0.0130799601231 -0.00362017457216 0.016874962875
-0.0160695204626 -0.00445559947342 0.0207691850769
-0.0173773475049 -0.00482689942954 0.0224999505
-0.0160117364695 -0.00445559947342 0.0207691850769
-0.0148412127248 -0.00413734236818 0.0192856718571
-0.0138267588128 -0.00386151954363 0.0179999604
-0.0129391116398 -0.00362017457216 0.016874962875
-0.012155893546 -0.00340722312674 0.015882318
-0.0114596996848 -0.00321793295303 0.014999967
-0.010836789388 -0.00304856806076 0.0142104950526
-0.0102761701208 -0.00289613965773 0.0134999703
-0.00976894316482 -0.00275822824545 0.0128571145714
-0.00930782775027 -0.0026328542343 0.0122727002727
-0.00888680932829 -0.00251838231107 0.0117391046087
-0.00850087577481 -0.00241344971477 0.01124997525
-0.00814581690561 -0.00231691172618 0.01079997624
-0.00781807025712 -0.00222779973671 0.0103845925385
-0.00751460113814 -0.00214528863535 0.009999978
-0.0072328083848 -0.00206867118409 0.00964283592857
-0.00697044961446 -0.00199733769498 0.00931032434483
-0.0067255814288 -0.00193075977182 0.0089999802
-0.00649651119061 -0.00186847719853 0.00870965825806
-0.0062817578423 -0.00181008728608 0.0084374814375
-0.00608001984843 -0.0017552361562 0.00818180018182
-0.00589014879538 -0.00170361156337 0.007941159
-0.0057111275168 -0.00165493694727 0.00771426874286
-0.00554205186479 -0.00160896647651 0.0074999835
-0.00538211543723 -0.00156548089607 0.00729728124324
-0.00441694833827 -0.00128717318121 0.0059999868
-0.0283410113238 -0.00827468473636 0.0385713437143
-0.0180010439374 -0.00526570846859 0.0245454005455
-0.0219595430396 -0.00643586590606 0.029999934
-0.00438356203114 -0.00128717318121 0.0059999868
-0.0151449765728 -0.00445559947342 0.0207691850769
-0.00409393957272 -0.00120672485739 0.005624987625
-0.00408611465699 -0.00120672485739 0.005624987625
-0.00407828974125 -0.00120672485739 0.005624987625
-0.00415707046011 -0.00123239985435 0.00574466821277
-0.00406263990979 -0.00120672485739 0.005624987625
-0.00397206366764 -0.00118209781948 0.00551019195918
-0.00388511047518 -0.00115845586309 0.00539998812
-0.00387759855608 -0.00115845586309 0.00539998812
-0.00387008663698 -0.00115845586309 0.00539998812
-0.00386257471787 -0.00115845586309 0.00539998812
-0.00385506279877 -0.00115845586309 0.00539998812
-0.00384755087966 -0.00115845586309 0.00539998812
-0.00384003896056 -0.00115845586309 0.00539998812
-0.00383252704145 -0.00115845586309 0.00539998812
-0.00382501512235 -0.00115845586309 0.00539998812
-0.00545357600463 -0.00165493694727 0.00771426874286
-0.0317499273678 -0.00965379885908 0.044999901
-0.0316873280419 -0.00965379885908 0.044999901
-0.00632494574321 -0.00193075977182 0.0089999802
-0.0135266268815 -0.00413734236818 0.0192856718571
-0.00484608154836 -0.00148519982447 0.00692306169231
-0.0145093526485 -0.00445559947342 0.0207691850769
-0.012549732565 -0.00386151954363 0.0179999604
-0.0049439576979 -0.00152428403038 0.00710524752632
-0.0037498959313 -0.00115845586309 0.00539998812
-0.00374238401219 -0.00115845586309 0.00539998812
-0.0186743604654 -0.00579227931545 0.0269999406
-0.00372736017398 -0.00115845586309 0.00539998812
-0.00371984825488 -0.00115845586309 0.00539998812
-0.0116010510493 -0.00362017457216 0.016874962875
-0.0168401109849 -0.00526570846859 0.0245454005455
-0.00972976973043 -0.00304856806076 0.0142104950526
-0.00709577034319 -0.00222779973671 0.0103845925385
-0.00657551546313 -0.00206867118409 0.00964283592857
-0.0079886450875 -0.00251838231107 0.0117391046087
-0.0141048646967 -0.00445559947342 0.0207691850769
-0.0304979408503 -0.00965379885908 0.044999901
-0.0260874355924 -0.00827468473636 0.0385713437143
-0.00674949826635 -0.00214528863535 0.009999978
-0.00534884874224 -0.00170361156337 0.007941159
-0.00648161647432 -0.00206867118409 0.00964283592857
-0.00624516087331 -0.00199733769498 0.00931032434483
-0.0180734069371 -0.00579227931545 0.0269999406
-0.0360716946831 -0.0115845586309 0.0539998812
-0.00692241836385 -0.00222779973671 0.0103845925385
-0.00641454576803 -0.00206867118409 0.00964283592857
-0.0448079213874 -0.0144806982886 0.0674998515
-0.0198728988438 -0.00643586590606 0.029999934
-0.0137292687415 -0.00445559947342 0.0207691850769
-0.0161913543349 -0.00526570846859 0.0245454005455
-0.0104546648076 -0.00340722312674 0.015882318
-0.0295589509622 -0.00965379885908 0.044999901
-0.0589927032727 -0.0193075977182 0.089999802
-0.0220753142329 -0.00724034914431 0.03374992575
-0.0352453835815 -0.0115845586309 0.0539998812
-0.0293085536587 -0.00965379885908 0.044999901
-0.0175475725997 -0.00579227931545 0.0269999406
-0.00364791937588 -0.00120672485739 0.005624987625
-0.00416010795445 -0.00137911412273 0.00642855728571
-0.0174348938132 -0.00579227931545 0.0269999406
-0.0434933355441 -0.0144806982886 0.0674998515
-0.00423409137125 -0.00141275105255 0.00658535136585
-0.0108263843916 -0.00362017457216 0.016874962875
-0.0132958887931 -0.00445559947342 0.0207691850769
-0.0037493686599 -0.00125919115553 0.00586955230435
-0.0143412802 -0.00482689942954 0.0224999505
-0.0114479844297 -0.00386151954363 0.0179999604
-0.0114229446993 -0.00386151954363 0.0179999604
-0.00397601336126 -0.00134704170127 0.00627905595349
-0.00775422629905 -0.0026328542343 0.0122727002727
-0.00895880961178 -0.00304856806076 0.0142104950526
-0.0121315561906 -0.00413734236818 0.0192856718571
-0.0282443651189 -0.00965379885908 0.044999901
-0.00845452973791 -0.00289613965773 0.0134999703
-0.00937305548905 -0.00321793295303 0.014999967
-0.00885996857093 -0.00304856806076 0.0142104950526
-0.00730277421272 -0.00251838231107 0.0117391046087
-0.00644570042066 -0.00222779973671 0.0103845925385
-0.00522539421819 -0.00181008728608 0.0084374814375
-0.00521365684459 -0.00181008728608 0.0084374814375
-0.0184957136746 -0.00643586590606 0.029999934
-0.0166085827116 -0.00579227931545 0.0269999406
-0.0150645664692 -0.00526570846859 0.0245454005455
-0.0236192336008 -0.00827468473636 0.0385713437143
-0.0235655770358 -0.00827468473636 0.0385713437143
-0.0117559602354 -0.00413734236818 0.0192856718571
-0.0109471898227 -0.00386151954363 0.0179999604
-0.0546107504616 -0.0193075977182 0.089999802
-0.0408641638574 -0.0144806982886 0.0674998515
-0.00906005885968 -0.00321793295303 0.014999967
-0.00369785144362 -0.00131642711715 0.00613635013636
-0.00386499684676 -0.00137911412273 0.00642855728571
-0.0147231156008 -0.00526570846859 0.0245454005455
-0.00394094330862 -0.00141275105255 0.00658535136585
-0.00335839749371 -0.00120672485739 0.005624987625
-0.0114876774102 -0.00413734236818 0.0192856718571
-0.0106967925192 -0.00386151954363 0.0179999604
-0.00372270446122 -0.00134704170127 0.00627905595349
-0.00362956126994 -0.00131642711715 0.00613635013636
-0.00325153265147 -0.00118209781948 0.00551019195918
-0.00567676799881 -0.00206867118409 0.00964283592857
-0.00932787694185 -0.00340722312674 0.015882318
-0.0225997588652 -0.00827468473636 0.0385713437143
-0.0197278395126 -0.00724034914431 0.03374992575
-0.00357834363968 -0.00131642711715 0.00613635013636
-0.0033419473232 -0.00123239985435 0.00574466821277
-0.0195869910294 -0.00724034914431 0.03374992575
-0.019540041535 -0.00724034914431 0.03374992575
-0.00346543858499 -0.00128717318121 0.0059999868
-0.00330998170999 -0.00123239985435 0.00574466821277
-0.0172437271571 -0.00643586590606 0.029999934
-0.00516059828197 -0.00193075977182 0.0089999802
-0.00429006534733 -0.00160896647651 0.0074999835
-0.00616267026194 -0.00231691172618 0.01079997624
-0.00349298092258 -0.00131642711715 0.00613635013636
-0.0035654782474 -0.00134704170127 0.00627905595349
-0.0509799895609 -0.0193075977182 0.089999802
-0.0381410931819 -0.0144806982886 0.0674998515
-0.00585341449124 -0.00222779973671 0.0103845925385
-0.00309822817994 -0.00118209781948 0.00551019195918
-0.00388301499646 -0.00148519982447 0.00692306169231
-0.0215802841295 -0.00827468473636 0.0385713437143
-0.0215266275645 -0.00827468473636 0.0385713437143
-0.00715765699982 -0.00275822824545 0.0128571145714
-0.00749676005205 -0.00289613965773 0.0134999703
-0.00311582510595 -0.00120672485739 0.005624987625
-0.0213120013043 -0.00827468473636 0.0385713437143
-0.0212583447393 -0.00827468473636 0.0385713437143
-0.0061847007175 -0.00241344971477 0.01124997525
-0.0123381017721 -0.00482689942954 0.0224999505
-0.0030139107206 -0.00118209781948 0.00551019195918
-0.0210437184792 -0.00827468473636 0.0385713437143
-0.0146930433399 -0.00579227931545 0.0269999406
-0.00915967734024 -0.00362017457216 0.016874962875
-0.00522068719602 -0.00206867118409 0.00964283592857
-0.00383693804035 -0.00152428403038 0.00710524752632
-0.024238008263 -0.00965379885908 0.044999901
