ply
format ascii 1.0
element vertex 1003
property float x
property float y
property float z
end_header
-0.0227107349501 -0.00443268747811 0.029999934
-0.0226690020662 -0.00443268747811 0.029999934
-0.0226272691822 -0.00443268747811 0.029999934
-0.0225855362983 -0.00443268747811 0.029999934
-0.0225438034144 -0.00443268747811 0.029999934
-0.0225020705305 -0.00443268747811 0.029999934
-0.0224603376466 -0.00443268747811 0.029999934
-0.0224186047627 -0.00443268747811 0.029999934
-0.0223768718788 -0.00443268747811 0.029999934
-0.0223351389948 -0.00443268747811 0.029999934
-0.0222934061109 -0.00443268747811 0.029999934
-0.022251673227 -0.00443268747811 0.029999934
-0.0222099403431 -0.00443268747811 0.029999934
-0.0221682074592 -0.00443268747811 0.029999934
-0.0221264745753 -0.00443268747811 0.029999934
-0.0220847416913 -0.00443268747811 0.029999934
-0.0220430088074 -0.00443268747811 0.029999934
-0.0220012759235 -0.00443268747811 0.029999934
-0.0219595430396 -0.00443268747811 0.029999934
-0.0219178101557 -0.00443268747811 0.029999934
-0.0218760772718 -0.00443268747811 0.029999934
-0.0218343443879 -0.00443268747811 0.029999934
-0.0217926115039 -0.00443268747811 0.029999934
-0.017659593069 -0.00362674430027 0.0245454005455
-0.0176254479822 -0.00362674430027 0.0245454005455
-0.0173181422006 -0.00362674430027 0.0245454005455
-0.0172839971138 -0.00362674430027 0.0245454005455
-0.0172157069401 -0.00362674430027 0.0245454005455
-0.0171815618533 -0.00362674430027 0.0245454005455
-0.0171474167664 -0.00362674430027 0.0245454005455
-0.0171132716796 -0.00362674430027 0.0245454005455
-0.0232960010874 -0.00498677341287 0.03374992575
-0.023249051593 -0.00498677341287 0.03374992575
-0.0232021020986 -0.00498677341287 0.03374992575
-0.0224978596825 -0.00498677341287 0.03374992575
-0.029183355007 -0.00664903121716 0.044999901
-0.0291207556811 -0.00664903121716 0.044999901
-0.0290581563553 -0.00664903121716 0.044999901
-0.0289955570294 -0.00664903121716 0.044999901
-0.0289329577035 -0.00664903121716 0.044999901
-0.0288703583776 -0.00664903121716 0.044999901
-0.0288077590518 -0.00664903121716 0.044999901
-0.0287451597259 -0.00664903121716 0.044999901
-0.0286825604 -0.00664903121716 0.044999901
-0.0286199610741 -0.00664903121716 0.044999901
-0.0285573617483 -0.00664903121716 0.044999901
-0.0284947624224 -0.00664903121716 0.044999901
-0.0284321630965 -0.00664903121716 0.044999901
-0.0283695637706 -0.00664903121716 0.044999901
-0.0283069644448 -0.00664903121716 0.044999901
-0.0282443651189 -0.00664903121716 0.044999901
-0.028181765793 -0.00664903121716 0.044999901
-0.0281191664672 -0.00664903121716 0.044999901
-0.0335176421874 -0.0079788374606 0.0539998812
-0.0334425229964 -0.0079788374606 0.0539998812
-0.0333674038053 -0.0079788374606 0.0539998812
-0.0332922846143 -0.0079788374606 0.0539998812
-0.027680971186 -0.00664903121716 0.044999901
-0.0326162118949 -0.0079788374606 0.0539998812
-0.0267419812979 -0.00664903121716 0.044999901
-0.0266793819721 -0.00664903121716 0.044999901
-0.0266167826462 -0.00664903121716 0.044999901
-0.0265541833203 -0.00664903121716 0.044999901
-0.0264915839944 -0.00664903121716 0.044999901
-0.0264289846686 -0.00664903121716 0.044999901
-0.0263663853427 -0.00664903121716 0.044999901
-0.00164943082353 -0.000419938813716 0.00284209901053
-0.00164547718189 -0.000419938813716 0.00284209901053
-0.00164152354026 -0.000419938813716 0.00284209901053
-0.00174374769005 -0.000448249295539 0.00303370119101
-0.00175929486885 -0.000453343037534 0.00306817506818
-0.00249100568555 -0.000643454633919 0.00435482912903
-0.00248494768627 -0.000643454633919 0.00435482912903
-0.0305128745455 -0.0079788374606 0.0539998812
-0.0304377553545 -0.0079788374606 0.0539998812
-0.0303626361634 -0.0079788374606 0.0539998812
-0.049978400347 -0.0132980624343 0.089999802
-0.0498532016952 -0.0132980624343 0.089999802
-0.0497280030435 -0.0132980624343 0.089999802
-0.0496028043917 -0.0132980624343 0.089999802
-0.04947760574 -0.0132980624343 0.089999802
-0.0493524070882 -0.0132980624343 0.089999802
-0.0492272084365 -0.0132980624343 0.089999802
-0.0491020097847 -0.0132980624343 0.089999802
-0.048976811133 -0.0132980624343 0.089999802
-0.0488516124813 -0.0132980624343 0.089999802
-0.0487264138295 -0.0132980624343 0.089999802
-0.0486012151778 -0.0132980624343 0.089999802
-0.048476016526 -0.0132980624343 0.089999802
-0.0723384288338 -0.0199470936515 0.134999703
-0.0721506308562 -0.0199470936515 0.134999703
-0.0475996259638 -0.0132980624343 0.089999802
-0.047474427312 -0.0132980624343 0.089999802
-0.0473492286603 -0.0132980624343 0.089999802
-0.0472240300085 -0.0132980624343 0.089999802
-0.0470988313568 -0.0132980624343 0.089999802
-0.0469736327051 -0.0132980624343 0.089999802
-0.0700848531023 -0.0199470936515 0.134999703
-0.0698970551247 -0.0199470936515 0.134999703
-0.0697092571471 -0.0199470936515 0.134999703
-0.0695214591695 -0.0199470936515 0.134999703
-0.0693336611919 -0.0199470936515 0.134999703
-0.0691458632142 -0.0199470936515 0.134999703
-0.0689580652366 -0.0199470936515 0.134999703
-0.068770267259 -0.0199470936515 0.134999703
-0.0685824692814 -0.0199470936515 0.134999703
-0.0683946713038 -0.0199470936515 0.134999703
-0.0682068733261 -0.0199470936515 0.134999703
-0.0680190753485 -0.0199470936515 0.134999703
-0.0678312773709 -0.0199470936515 0.134999703
-0.0676434793933 -0.0199470936515 0.134999703
-0.0674556814157 -0.0199470936515 0.134999703
-0.0670800854604 -0.0199470936515 0.134999703
-0.0668922874828 -0.0199470936515 0.134999703
-0.0667044895052 -0.0199470936515 0.134999703
-0.131906595189 -0.039894187303 0.269999406
-0.131530999234 -0.039894187303 0.269999406
-0.131155403279 -0.039894187303 0.269999406
-0.130779807324 -0.039894187303 0.269999406
-0.130404211368 -0.039894187303 0.269999406
-0.130028615413 -0.039894187303 0.269999406
-0.129653019458 -0.039894187303 0.269999406
-0.129277423503 -0.039894187303 0.269999406
-0.128901827547 -0.039894187303 0.269999406
-0.128526231592 -0.039894187303 0.269999406
-0.128150635637 -0.039894187303 0.269999406
-0.127775039682 -0.039894187303 0.269999406
-0.127399443727 -0.039894187303 0.269999406
-0.127023847771 -0.039894187303 0.269999406
-0.126648251816 -0.039894187303 0.269999406
-0.126272655861 -0.039894187303 0.269999406
-0.125897059906 -0.039894187303 0.269999406
-0.12552146395 -0.039894187303 0.269999406
-0.125145867995 -0.039894187303 0.269999406
-0.12477027204 -0.039894187303 0.269999406
-0.124394676085 -0.039894187303 0.269999406
-0.124019080129 -0.039894187303 0.269999406
-0.123643484174 -0.039894187303 0.269999406
-0.123267888219 -0.039894187303 0.269999406
-0.122892292264 -0.039894187303 0.269999406
-0.122516696308 -0.039894187303 0.269999406
-0.122141100353 -0.039894187303 0.269999406
-0.121765504398 -0.039894187303 0.269999406
-0.121014312487 -0.039894187303 0.269999406
-0.000848385096756 -0.000293339612522 0.00198528975
-0.000845623361791 -0.000293339612522 0.00198528975
-0.0280000023904 -0.00997354682575 0.0674998515
-0.0223248827213 -0.0079788374606 0.0539998812
-0.0222497635302 -0.0079788374606 0.0539998812
-0.0221746443392 -0.0079788374606 0.0539998812
-0.0220995251481 -0.0079788374606 0.0539998812
-0.0220244059571 -0.0079788374606 0.0539998812
-0.021949286766 -0.0079788374606 0.0539998812
-0.021874167575 -0.0079788374606 0.0539998812
-0.021799048384 -0.0079788374606 0.0539998812
-0.0270610125023 -0.00997354682575 0.0674998515
-0.0269671135135 -0.00997354682575 0.0674998515
-0.0268732145247 -0.00997354682575 0.0674998515
-0.0267793155359 -0.00997354682575 0.0674998515
-0.0266854165471 -0.00997354682575 0.0674998515
-0.0265915175583 -0.00997354682575 0.0674998515
-0.0264976185695 -0.00997354682575 0.0674998515
-0.0264037195807 -0.00997354682575 0.0674998515
-0.0263098205918 -0.00997354682575 0.0674998515
-0.026215921603 -0.00997354682575 0.0674998515
-0.0261220226142 -0.00997354682575 0.0674998515
-0.0112759247572 -0.00443268747811 0.029999934
-0.0112341918733 -0.00443268747811 0.029999934
-0.0111924589894 -0.00443268747811 0.029999934
-0.0111507261055 -0.00443268747811 0.029999934
-0.0165382911806 -0.00664903121716 0.044999901
-0.0164756918547 -0.00664903121716 0.044999901
-0.0164130925288 -0.00664903121716 0.044999901
-0.016350493203 -0.00664903121716 0.044999901
-0.0136927690695 -0.00569916961471 0.0385713437143
-0.0117464254638 -0.00498677341287 0.03374992575
-0.00708410953338 -0.00306878363869 0.0207691850769
-0.00705521753683 -0.00306878363869 0.0207691850769
-0.00702632554027 -0.00306878363869 0.0207691850769
-0.00699743354371 -0.00306878363869 0.0207691850769
-0.00696854154715 -0.00306878363869 0.0207691850769
-0.0069396495506 -0.00306878363869 0.0207691850769
-0.00691075755404 -0.00306878363869 0.0207691850769
-0.00688186555748 -0.00306878363869 0.0207691850769
-0.00685297356093 -0.00306878363869 0.0207691850769
-0.00682408156437 -0.00306878363869 0.0207691850769
-0.00679518956781 -0.00306878363869 0.0207691850769
-0.00676629757126 -0.00306878363869 0.0207691850769
-0.0067374055747 -0.00306878363869 0.0207691850769
-0.00670851357814 -0.00306878363869 0.0207691850769
-0.00667962158159 -0.00306878363869 0.0207691850769
-0.00943967786493 -0.00443268747811 0.029999934
-0.00939794498102 -0.00443268747811 0.029999934
-0.0093562120971 -0.00443268747811 0.029999934
-0.0192673964311 -0.00997354682575 0.0674998515
-0.0153387979538 -0.0079788374606 0.0539998812
-0.073313626172 -0.039894187303 0.269999406
-0.00451167739414 -0.00249338670644 0.016874962875
-0.00448820264694 -0.00249338670644 0.016874962875
-0.00446472789974 -0.00249338670644 0.016874962875
-0.00444125315253 -0.00249338670644 0.016874962875
-0.00441777840533 -0.00249338670644 0.016874962875
-0.00439430365813 -0.00249338670644 0.016874962875
-0.00437082891093 -0.00249338670644 0.016874962875
-0.00434735416372 -0.00249338670644 0.016874962875
-0.00432387941652 -0.00249338670644 0.016874962875
-0.00430040466932 -0.00249338670644 0.016874962875
-0.00427692992212 -0.00249338670644 0.016874962875
-0.0661773030224 -0.039894187303 0.269999406
-0.0631725353805 -0.039894187303 0.269999406
-0.00597584849994 -0.00443268747811 0.029999934
-0.00593411561603 -0.00443268747811 0.029999934
-0.00589238273211 -0.00443268747811 0.029999934
-0.0058506498482 -0.00443268747811 0.029999934
-0.00580891696428 -0.00443268747811 0.029999934
-0.00576718408037 -0.00443268747811 0.029999934
-0.00572545119645 -0.00443268747811 0.029999934
-0.00568371831253 -0.00443268747811 0.029999934
-0.00477731012156 -0.0039894187303 0.0269999406
-0.00473975052604 -0.0039894187303 0.0269999406
-0.00470219093052 -0.0039894187303 0.0269999406
-0.00420642885406 -0.00362674430027 0.0245454005455
-0.00393326815934 -0.00362674430027 0.0245454005455
-0.00357419614979 -0.00332451560858 0.0224999505
-0.00354289648686 -0.00332451560858 0.0224999505
-0.00324147399131 -0.00306878363869 0.0207691850769
-0.0173118763145 -0.00303989164213 0.0207691850769
-0.017282984318 -0.00303989164213 0.0207691850769
-0.0172540923214 -0.00303989164213 0.0207691850769
-0.0172252003249 -0.00303989164213 0.0207691850769
-0.0185354350335 -0.00329321594565 0.0224999505
-0.0185041353706 -0.00329321594565 0.0224999505
-0.0184728357076 -0.00329321594565 0.0224999505
-0.0184415360447 -0.00329321594565 0.0224999505
-0.0200497491478 -0.00359259921343 0.0245454005455
-0.020015604061 -0.00359259921343 0.0245454005455
-0.0199473138873 -0.00359259921343 0.0245454005455
-0.0199131688005 -0.00359259921343 0.0245454005455
-0.0214913301297 -0.00395185913477 0.0269999406
-0.0214537705342 -0.00395185913477 0.0269999406
-0.0214162109387 -0.00395185913477 0.0269999406
-0.0263007687293 -0.00493982391847 0.03374992575
-0.0262538192349 -0.00493982391847 0.03374992575
-0.023253262441 -0.00439095459419 0.029999934
-0.0232115295571 -0.00439095459419 0.029999934
-0.0231697966732 -0.00439095459419 0.029999934
-0.0231280637892 -0.00439095459419 0.029999934
-0.0230445980214 -0.00439095459419 0.029999934
-0.0230028651375 -0.00439095459419 0.029999934
-0.0229611322536 -0.00439095459419 0.029999934
-0.0229193993697 -0.00439095459419 0.029999934
-0.0228776664857 -0.00439095459419 0.029999934
-0.0228359336018 -0.00439095459419 0.029999934
-0.0227942007179 -0.00439095459419 0.029999934
-0.022752467834 -0.00439095459419 0.029999934
-0.0227107349501 -0.00439095459419 0.029999934
-0.0226690020662 -0.00439095459419 0.029999934
-0.0226272691822 -0.00439095459419 0.029999934
-0.0225855362983 -0.00439095459419 0.029999934
-0.0225438034144 -0.00439095459419 0.029999934
-0.0225020705305 -0.00439095459419 0.029999934
-0.0224603376466 -0.00439095459419 0.029999934
-0.0224186047627 -0.00439095459419 0.029999934
-0.0223768718788 -0.00439095459419 0.029999934
-0.0223351389948 -0.00439095459419 0.029999934
-0.0222934061109 -0.00439095459419 0.029999934
-0.022251673227 -0.00439095459419 0.029999934
-0.0222099403431 -0.00439095459419 0.029999934
-0.0221682074592 -0.00439095459419 0.029999934
-0.0221264745753 -0.00439095459419 0.029999934
-0.0220847416913 -0.00439095459419 0.029999934
-0.0220430088074 -0.00439095459419 0.029999934
-0.0220012759235 -0.00439095459419 0.029999934
-0.0219595430396 -0.00439095459419 0.029999934
-0.0219178101557 -0.00439095459419 0.029999934
-0.0218760772718 -0.00439095459419 0.029999934
-0.0218343443879 -0.00439095459419 0.029999934
-0.0217926115039 -0.00439095459419 0.029999934
-0.02175087862 -0.00439095459419 0.029999934
-0.0195382311625 -0.00395185913477 0.0269999406
-0.017659593069 -0.00359259921343 0.0245454005455
-0.0173181422006 -0.00359259921343 0.0245454005455
-0.0172839971138 -0.00359259921343 0.0245454005455
-0.0172157069401 -0.00359259921343 0.0245454005455
-0.0171815618533 -0.00359259921343 0.0245454005455
-0.0171474167664 -0.00359259921343 0.0245454005455
-0.0171132716796 -0.00359259921343 0.0245454005455
-0.0232960010874 -0.00493982391847 0.03374992575
-0.023249051593 -0.00493982391847 0.03374992575
-0.0224978596825 -0.00493982391847 0.03374992575
-0.029183355007 -0.00658643189129 0.044999901
-0.0291207556811 -0.00658643189129 0.044999901
-0.0290581563553 -0.00658643189129 0.044999901
-0.0289955570294 -0.00658643189129 0.044999901
-0.0289329577035 -0.00658643189129 0.044999901
-0.0288703583776 -0.00658643189129 0.044999901
-0.0288077590518 -0.00658643189129 0.044999901
-0.0287451597259 -0.00658643189129 0.044999901
-0.0286825604 -0.00658643189129 0.044999901
-0.0286199610741 -0.00658643189129 0.044999901
-0.0285573617483 -0.00658643189129 0.044999901
-0.0284947624224 -0.00658643189129 0.044999901
-0.0284321630965 -0.00658643189129 0.044999901
-0.0283695637706 -0.00658643189129 0.044999901
-0.0283069644448 -0.00658643189129 0.044999901
-0.0282443651189 -0.00658643189129 0.044999901
-0.028181765793 -0.00658643189129 0.044999901
-0.0281191664672 -0.00658643189129 0.044999901
-0.0333674038053 -0.00790371826955 0.0539998812
-0.0332922846143 -0.00790371826955 0.0539998812
-0.027680971186 -0.00658643189129 0.044999901
-0.0267419812979 -0.00658643189129 0.044999901
-0.0228143851253 -0.00564551304968 0.0385713437143
-0.0227607285603 -0.00564551304968 0.0385713437143
-0.00126258172881 -0.000316148730782 0.002159995248
-0.00174374769005 -0.000444029116267 0.00303370119101
-0.00248494768627 -0.000637396634641 0.00435482912903
-0.0305128745455 -0.00790371826955 0.0539998812
-0.0304377553545 -0.00790371826955 0.0539998812
-0.0303626361634 -0.00790371826955 0.0539998812
-0.049978400347 -0.0131728637826 0.089999802
-0.0498532016952 -0.0131728637826 0.089999802
-0.0497280030435 -0.0131728637826 0.089999802
-0.0496028043917 -0.0131728637826 0.089999802
-0.04947760574 -0.0131728637826 0.089999802
-0.0493524070882 -0.0131728637826 0.089999802
-0.0492272084365 -0.0131728637826 0.089999802
-0.0491020097847 -0.0131728637826 0.089999802
-0.048976811133 -0.0131728637826 0.089999802
-0.0488516124813 -0.0131728637826 0.089999802
-0.0487264138295 -0.0131728637826 0.089999802
-0.0486012151778 -0.0131728637826 0.089999802
-0.048476016526 -0.0131728637826 0.089999802
-0.0723384288338 -0.0197592956739 0.134999703
-0.0721506308562 -0.0197592956739 0.134999703
-0.0719628328785 -0.0197592956739 0.134999703
-0.0717750349009 -0.0197592956739 0.134999703
-0.0715872369233 -0.0197592956739 0.134999703
-0.047474427312 -0.0131728637826 0.089999802
-0.0473492286603 -0.0131728637826 0.089999802
-0.0472240300085 -0.0131728637826 0.089999802
-0.0470988313568 -0.0131728637826 0.089999802
-0.0469736327051 -0.0131728637826 0.089999802
-0.0700848531023 -0.0197592956739 0.134999703
-0.0698970551247 -0.0197592956739 0.134999703
-0.0697092571471 -0.0197592956739 0.134999703
-0.0695214591695 -0.0197592956739 0.134999703
-0.0693336611919 -0.0197592956739 0.134999703
-0.0691458632142 -0.0197592956739 0.134999703
-0.0689580652366 -0.0197592956739 0.134999703
-0.068770267259 -0.0197592956739 0.134999703
-0.0685824692814 -0.0197592956739 0.134999703
-0.0683946713038 -0.0197592956739 0.134999703
-0.0682068733261 -0.0197592956739 0.134999703
-0.0680190753485 -0.0197592956739 0.134999703
-0.0678312773709 -0.0197592956739 0.134999703
-0.0676434793933 -0.0197592956739 0.134999703
-0.0674556814157 -0.0197592956739 0.134999703
-0.134535766876 -0.0395185913477 0.269999406
-0.0670800854604 -0.0197592956739 0.134999703
-0.0668922874828 -0.0197592956739 0.134999703
-0.0667044895052 -0.0197592956739 0.134999703
-0.131530999234 -0.0395185913477 0.269999406
-0.131155403279 -0.0395185913477 0.269999406
-0.130779807324 -0.0395185913477 0.269999406
-0.130404211368 -0.0395185913477 0.269999406
-0.126648251816 -0.0395185913477 0.269999406
-0.126272655861 -0.0395185913477 0.269999406
-0.125897059906 -0.0395185913477 0.269999406
-0.12552146395 -0.0395185913477 0.269999406
-0.125145867995 -0.0395185913477 0.269999406
-0.12477027204 -0.0395185913477 0.269999406
-0.124394676085 -0.0395185913477 0.269999406
-0.124019080129 -0.0395185913477 0.269999406
-0.123643484174 -0.0395185913477 0.269999406
-0.123267888219 -0.0395185913477 0.269999406
-0.122892292264 -0.0395185913477 0.269999406
-0.122516696308 -0.0395185913477 0.269999406
-0.122141100353 -0.0395185913477 0.269999406
-0.121765504398 -0.0395185913477 0.269999406
-0.121389908443 -0.0395185913477 0.269999406
-0.000851146831721 -0.000290577877557 0.00198528975
-0.000848385096756 -0.000290577877557 0.00198528975
-0.000845623361791 -0.000290577877557 0.00198528975
-0.000842861626826 -0.000290577877557 0.00198528975
-0.0374585351723 -0.0131728637826 0.089999802
-0.0280000023904 -0.00987964783694 0.0674998515
-0.0223248827213 -0.00790371826955 0.0539998812
-0.0222497635302 -0.00790371826955 0.0539998812
-0.0221746443392 -0.00790371826955 0.0539998812
-0.0220995251481 -0.00790371826955 0.0539998812
-0.0220244059571 -0.00790371826955 0.0539998812
-0.021949286766 -0.00790371826955 0.0539998812
-0.0270610125023 -0.00987964783694 0.0674998515
-0.0269671135135 -0.00987964783694 0.0674998515
-0.0268732145247 -0.00987964783694 0.0674998515
-0.0267793155359 -0.00987964783694 0.0674998515
-0.0266854165471 -0.00987964783694 0.0674998515
-0.0265915175583 -0.00987964783694 0.0674998515
-0.0264976185695 -0.00987964783694 0.0674998515
-0.0264037195807 -0.00987964783694 0.0674998515
-0.0263098205918 -0.00987964783694 0.0674998515
-0.026215921603 -0.00987964783694 0.0674998515
-0.0261220226142 -0.00987964783694 0.0674998515
-0.0112759247572 -0.00439095459419 0.029999934
-0.0112341918733 -0.00439095459419 0.029999934
-0.0110672603376 -0.00439095459419 0.029999934
-0.0165382911806 -0.00658643189129 0.044999901
-0.0164756918547 -0.00658643189129 0.044999901
-0.0164130925288 -0.00658643189129 0.044999901
-0.016350493203 -0.00658643189129 0.044999901
-0.0162878938771 -0.00658643189129 0.044999901
-0.0162252945512 -0.00658643189129 0.044999901
-0.0161626952253 -0.00658643189129 0.044999901
-0.0161000958995 -0.00658643189129 0.044999901
-0.0135317993744 -0.00564551304968 0.0385713437143
-0.00708410953338 -0.00303989164213 0.0207691850769
-0.00705521753683 -0.00303989164213 0.0207691850769
-0.00702632554027 -0.00303989164213 0.0207691850769
-0.00699743354371 -0.00303989164213 0.0207691850769
-0.00696854154715 -0.00303989164213 0.0207691850769
-0.0069396495506 -0.00303989164213 0.0207691850769
-0.00691075755404 -0.00303989164213 0.0207691850769
-0.00688186555748 -0.00303989164213 0.0207691850769
-0.00685297356093 -0.00303989164213 0.0207691850769
-0.00682408156437 -0.00303989164213 0.0207691850769
-0.00679518956781 -0.00303989164213 0.0207691850769
-0.00676629757126 -0.00303989164213 0.0207691850769
-0.0067374055747 -0.00303989164213 0.0207691850769
-0.00670851357814 -0.00303989164213 0.0207691850769
-0.00667962158159 -0.00303989164213 0.0207691850769
-0.00943967786493 -0.00439095459419 0.029999934
-0.00939794498102 -0.00439095459419 0.029999934
-0.0093562120971 -0.00439095459419 0.029999934
-0.0192673964311 -0.00987964783694 0.0674998515
-0.0153387979538 -0.00790371826955 0.0539998812
-0.073313626172 -0.0395185913477 0.269999406
-0.00451167739414 -0.00246991195923 0.016874962875
-0.00448820264694 -0.00246991195923 0.016874962875
-0.00446472789974 -0.00246991195923 0.016874962875
-0.00444125315253 -0.00246991195923 0.016874962875
-0.00441777840533 -0.00246991195923 0.016874962875
-0.00439430365813 -0.00246991195923 0.016874962875
-0.00437082891093 -0.00246991195923 0.016874962875
-0.00434735416372 -0.00246991195923 0.016874962875
-0.00432387941652 -0.00246991195923 0.016874962875
-0.00430040466932 -0.00246991195923 0.016874962875
-0.00427692992212 -0.00246991195923 0.016874962875
-0.0661773030224 -0.0395185913477 0.269999406
-0.063923727291 -0.0395185913477 0.269999406
-0.0635481313357 -0.0395185913477 0.269999406
-0.0631725353805 -0.0395185913477 0.269999406
-0.0627969394252 -0.0395185913477 0.269999406
-0.00614278003561 -0.00439095459419 0.029999934
-0.00605931426777 -0.00439095459419 0.029999934
-0.00601758138386 -0.00439095459419 0.029999934
-0.00597584849994 -0.00439095459419 0.029999934
-0.00593411561603 -0.00439095459419 0.029999934
-0.00589238273211 -0.00439095459419 0.029999934
-0.0058506498482 -0.00439095459419 0.029999934
-0.00580891696428 -0.00439095459419 0.029999934
-0.00576718408037 -0.00439095459419 0.029999934
-0.00572545119645 -0.00439095459419 0.029999934
-0.00568371831253 -0.00439095459419 0.029999934
-0.00625333461839 -0.00493982391847 0.03374992575
-0.00477731012156 -0.00395185913477 0.0269999406
-0.00473975052604 -0.00395185913477 0.0269999406
-0.00470219093052 -0.00395185913477 0.0269999406
-0.00420642885406 -0.00359259921343 0.0245454005455
-0.00393326815934 -0.00359259921343 0.0245454005455
-0.00354289648686 -0.00329321594565 0.0224999505
-0.0173118763145 -0.00301099964558 0.0207691850769
-0.017282984318 -0.00301099964558 0.0207691850769
-0.0172540923214 -0.00301099964558 0.0207691850769
-0.0172252003249 -0.00301099964558 0.0207691850769
-0.0185354350335 -0.00326191628271 0.0224999505
-0.0185041353706 -0.00326191628271 0.0224999505
-0.0184728357076 -0.00326191628271 0.0224999505
-0.0184415360447 -0.00326191628271 0.0224999505
-0.0200497491478 -0.00355845412659 0.0245454005455
-0.020015604061 -0.00355845412659 0.0245454005455
-0.0214913301297 -0.00391429953925 0.0269999406
-0.0214537705342 -0.00391429953925 0.0269999406
-0.0194351375847 -0.00355845412659 0.0245454005455
-0.0212659725566 -0.00391429953925 0.0269999406
-0.0263007687293 -0.00489287442406 0.03374992575
-0.0262538192349 -0.00489287442406 0.03374992575
-0.023253262441 -0.00434922171028 0.029999934
-0.0232115295571 -0.00434922171028 0.029999934
-0.0231697966732 -0.00434922171028 0.029999934
-0.0231280637892 -0.00434922171028 0.029999934
-0.0230863309053 -0.00434922171028 0.029999934
-0.0230445980214 -0.00434922171028 0.029999934
-0.0230028651375 -0.00434922171028 0.029999934
-0.0229611322536 -0.00434922171028 0.029999934
-0.0229193993697 -0.00434922171028 0.029999934
-0.0228776664857 -0.00434922171028 0.029999934
-0.0228359336018 -0.00434922171028 0.029999934
-0.0227942007179 -0.00434922171028 0.029999934
-0.022752467834 -0.00434922171028 0.029999934
-0.0227107349501 -0.00434922171028 0.029999934
-0.0226690020662 -0.00434922171028 0.029999934
-0.0226272691822 -0.00434922171028 0.029999934
-0.0225855362983 -0.00434922171028 0.029999934
-0.0225438034144 -0.00434922171028 0.029999934
-0.0225020705305 -0.00434922171028 0.029999934
-0.0224603376466 -0.00434922171028 0.029999934
-0.0224186047627 -0.00434922171028 0.029999934
-0.0223768718788 -0.00434922171028 0.029999934
-0.0223351389948 -0.00434922171028 0.029999934
-0.0222934061109 -0.00434922171028 0.029999934
-0.022251673227 -0.00434922171028 0.029999934
-0.0222099403431 -0.00434922171028 0.029999934
-0.0221682074592 -0.00434922171028 0.029999934
-0.0221264745753 -0.00434922171028 0.029999934
-0.0220847416913 -0.00434922171028 0.029999934
-0.0220430088074 -0.00434922171028 0.029999934
-0.0220012759235 -0.00434922171028 0.029999934
-0.0219595430396 -0.00434922171028 0.029999934
-0.0219178101557 -0.00434922171028 0.029999934
-0.0218760772718 -0.00434922171028 0.029999934
-0.0218343443879 -0.00434922171028 0.029999934
-0.0217926115039 -0.00434922171028 0.029999934
-0.02175087862 -0.00434922171028 0.029999934
-0.0195382311625 -0.00391429953925 0.0269999406
-0.0160940613245 -0.00326191628271 0.0224999505
-0.0190875160162 -0.00391429953925 0.0269999406
-0.0173181422006 -0.00355845412659 0.0245454005455
-0.0172839971138 -0.00355845412659 0.0245454005455
-0.0172157069401 -0.00355845412659 0.0245454005455
-0.0171815618533 -0.00355845412659 0.0245454005455
-0.0171474167664 -0.00355845412659 0.0245454005455
-0.0232960010874 -0.00489287442406 0.03374992575
-0.023249051593 -0.00489287442406 0.03374992575
-0.0264093749826 -0.00559185648464 0.0385713437143
-0.0224978596825 -0.00489287442406 0.03374992575
-0.0291207556811 -0.00652383256542 0.044999901
-0.0290581563553 -0.00652383256542 0.044999901
-0.0289955570294 -0.00652383256542 0.044999901
-0.0289329577035 -0.00652383256542 0.044999901
-0.0288703583776 -0.00652383256542 0.044999901
-0.0288077590518 -0.00652383256542 0.044999901
-0.0287451597259 -0.00652383256542 0.044999901
-0.0286825604 -0.00652383256542 0.044999901
-0.0286199610741 -0.00652383256542 0.044999901
-0.0285573617483 -0.00652383256542 0.044999901
-0.0284947624224 -0.00652383256542 0.044999901
-0.0284321630965 -0.00652383256542 0.044999901
-0.0283695637706 -0.00652383256542 0.044999901
-0.0283069644448 -0.00652383256542 0.044999901
-0.0282443651189 -0.00652383256542 0.044999901
-0.028181765793 -0.00652383256542 0.044999901
-0.0281191664672 -0.00652383256542 0.044999901
-0.0333674038053 -0.0078285990785 0.0539998812
-0.0332922846143 -0.0078285990785 0.0539998812
-0.027680971186 -0.00652383256542 0.044999901
-0.0267419812979 -0.00652383256542 0.044999901
-0.0228680416903 -0.00559185648464 0.0385713437143
-0.0228143851253 -0.00559185648464 0.0385713437143
-0.0393617800364 -0.00978574884813 0.0674998515
-0.0392678810476 -0.00978574884813 0.0674998515
-0.0391739820588 -0.00978574884813 0.0674998515
-0.03908008307 -0.00978574884813 0.0674998515
-0.0389861840812 -0.00978574884813 0.0674998515
-0.0388922850924 -0.00978574884813 0.0674998515
-0.0387983861036 -0.00978574884813 0.0674998515
-0.0387044871148 -0.00978574884813 0.0674998515
-0.0306631129276 -0.0078285990785 0.0539998812
-0.0305879937366 -0.0078285990785 0.0539998812
-0.0305128745455 -0.0078285990785 0.0539998812
-0.0304377553545 -0.0078285990785 0.0539998812
-0.0303626361634 -0.0078285990785 0.0539998812
-0.0302875169724 -0.0078285990785 0.0539998812
-0.00138588980648 -0.000359110049473 0.00247705877064
-0.00138244397203 -0.000359110049473 0.00247705877064
-0.00137899813758 -0.000359110049473 0.00247705877064
-0.049978400347 -0.0130476651308 0.089999802
-0.0498532016952 -0.0130476651308 0.089999802
-0.0497280030435 -0.0130476651308 0.089999802
-0.0496028043917 -0.0130476651308 0.089999802
-0.04947760574 -0.0130476651308 0.089999802
-0.0493524070882 -0.0130476651308 0.089999802
-0.0492272084365 -0.0130476651308 0.089999802
-0.0491020097847 -0.0130476651308 0.089999802
-0.048976811133 -0.0130476651308 0.089999802
-0.0488516124813 -0.0130476651308 0.089999802
-0.0487264138295 -0.0130476651308 0.089999802
-0.0486012151778 -0.0130476651308 0.089999802
-0.048476016526 -0.0130476651308 0.089999802
-0.0723384288338 -0.0195714976963 0.134999703
-0.0721506308562 -0.0195714976963 0.134999703
-0.0719628328785 -0.0195714976963 0.134999703
-0.0717750349009 -0.0195714976963 0.134999703
-0.0715872369233 -0.0195714976963 0.134999703
-0.0713994389457 -0.0195714976963 0.134999703
-0.0473492286603 -0.0130476651308 0.089999802
-0.0472240300085 -0.0130476651308 0.089999802
-0.0470988313568 -0.0130476651308 0.089999802
-0.0469736327051 -0.0130476651308 0.089999802
-0.0468484340533 -0.0130476651308 0.089999802
-0.0700848531023 -0.0195714976963 0.134999703
-0.0698970551247 -0.0195714976963 0.134999703
-0.0697092571471 -0.0195714976963 0.134999703
-0.0695214591695 -0.0195714976963 0.134999703
-0.0693336611919 -0.0195714976963 0.134999703
-0.0691458632142 -0.0195714976963 0.134999703
-0.0689580652366 -0.0195714976963 0.134999703
-0.068770267259 -0.0195714976963 0.134999703
-0.0685824692814 -0.0195714976963 0.134999703
-0.0683946713038 -0.0195714976963 0.134999703
-0.0682068733261 -0.0195714976963 0.134999703
-0.0680190753485 -0.0195714976963 0.134999703
-0.0678312773709 -0.0195714976963 0.134999703
-0.0676434793933 -0.0195714976963 0.134999703
-0.134535766876 -0.0391429953925 0.269999406
-0.0668922874828 -0.0195714976963 0.134999703
-0.126648251816 -0.0391429953925 0.269999406
-0.126272655861 -0.0391429953925 0.269999406
-0.125897059906 -0.0391429953925 0.269999406
-0.12552146395 -0.0391429953925 0.269999406
-0.125145867995 -0.0391429953925 0.269999406
-0.12477027204 -0.0391429953925 0.269999406
-0.124394676085 -0.0391429953925 0.269999406
-0.124019080129 -0.0391429953925 0.269999406
-0.123643484174 -0.0391429953925 0.269999406
-0.123267888219 -0.0391429953925 0.269999406
-0.122892292264 -0.0391429953925 0.269999406
-0.122516696308 -0.0391429953925 0.269999406
-0.122141100353 -0.0391429953925 0.269999406
-0.039586912252 -0.0130476651308 0.089999802
-0.0394617136003 -0.0130476651308 0.089999802
-0.0392113162968 -0.0130476651308 0.089999802
-0.000851146831721 -0.000287816142592 0.00198528975
-0.000848385096756 -0.000287816142592 0.00198528975
-0.000845623361791 -0.000287816142592 0.00198528975
-0.000842861626826 -0.000287816142592 0.00198528975
-0.0280000023904 -0.00978574884813 0.0674998515
-0.0223248827213 -0.0078285990785 0.0539998812
-0.0222497635302 -0.0078285990785 0.0539998812
-0.0221746443392 -0.0078285990785 0.0539998812
-0.0220244059571 -0.0078285990785 0.0539998812
-0.021949286766 -0.0078285990785 0.0539998812
-0.0270610125023 -0.00978574884813 0.0674998515
-0.0269671135135 -0.00978574884813 0.0674998515
-0.0268732145247 -0.00978574884813 0.0674998515
-0.0267793155359 -0.00978574884813 0.0674998515
-0.0266854165471 -0.00978574884813 0.0674998515
-0.0265915175583 -0.00978574884813 0.0674998515
-0.0264976185695 -0.00978574884813 0.0674998515
-0.0264037195807 -0.00978574884813 0.0674998515
-0.0263098205918 -0.00978574884813 0.0674998515
-0.026215921603 -0.00978574884813 0.0674998515
-0.0261220226142 -0.00978574884813 0.0674998515
-0.0112759247572 -0.00434922171028 0.029999934
-0.0112341918733 -0.00434922171028 0.029999934
-0.0164756918547 -0.00652383256542 0.044999901
-0.0164130925288 -0.00652383256542 0.044999901
-0.016350493203 -0.00652383256542 0.044999901
-0.0162878938771 -0.00652383256542 0.044999901
-0.0162252945512 -0.00652383256542 0.044999901
-0.0161626952253 -0.00652383256542 0.044999901
-0.0161000958995 -0.00652383256542 0.044999901
-0.0135317993744 -0.00559185648464 0.0385713437143
-0.0104412670789 -0.00434922171028 0.029999934
-0.00705521753683 -0.00301099964558 0.0207691850769
-0.00702632554027 -0.00301099964558 0.0207691850769
-0.00699743354371 -0.00301099964558 0.0207691850769
-0.00696854154715 -0.00301099964558 0.0207691850769
-0.0069396495506 -0.00301099964558 0.0207691850769
-0.00691075755404 -0.00301099964558 0.0207691850769
-0.00688186555748 -0.00301099964558 0.0207691850769
-0.00685297356093 -0.00301099964558 0.0207691850769
-0.00682408156437 -0.00301099964558 0.0207691850769
-0.00679518956781 -0.00301099964558 0.0207691850769
-0.00676629757126 -0.00301099964558 0.0207691850769
-0.0067374055747 -0.00301099964558 0.0207691850769
-0.00670851357814 -0.00301099964558 0.0207691850769
-0.00667962158159 -0.00301099964558 0.0207691850769
-0.00943967786493 -0.00434922171028 0.029999934
-0.00939794498102 -0.00434922171028 0.029999934
-0.0093562120971 -0.00434922171028 0.029999934
-0.0258150605599 -0.0130476651308 0.089999802
-0.0192673964311 -0.00978574884813 0.0674998515
-0.0153387979538 -0.0078285990785 0.0539998812
-0.073313626172 -0.0391429953925 0.269999406
-0.00451167739414 -0.00244643721203 0.016874962875
-0.00448820264694 -0.00244643721203 0.016874962875
-0.00446472789974 -0.00244643721203 0.016874962875
-0.00444125315253 -0.00244643721203 0.016874962875
-0.00441777840533 -0.00244643721203 0.016874962875
-0.00439430365813 -0.00244643721203 0.016874962875
-0.00437082891093 -0.00244643721203 0.016874962875
-0.00434735416372 -0.00244643721203 0.016874962875
-0.00432387941652 -0.00244643721203 0.016874962875
-0.00430040466932 -0.00244643721203 0.016874962875
-0.00427692992212 -0.00244643721203 0.016874962875
-0.0661773030224 -0.0391429953925 0.269999406
-0.063923727291 -0.0391429953925 0.269999406
-0.00622624580344 -0.00434922171028 0.029999934
-0.00618451291952 -0.00434922171028 0.029999934
-0.00614278003561 -0.00434922171028 0.029999934
-0.00610104715169 -0.00434922171028 0.029999934
-0.00605931426777 -0.00434922171028 0.029999934
-0.00601758138386 -0.00434922171028 0.029999934
-0.00597584849994 -0.00434922171028 0.029999934
-0.00593411561603 -0.00434922171028 0.029999934
-0.00589238273211 -0.00434922171028 0.029999934
-0.0058506498482 -0.00434922171028 0.029999934
-0.00580891696428 -0.00434922171028 0.029999934
-0.00576718408037 -0.00434922171028 0.029999934
-0.00572545119645 -0.00434922171028 0.029999934
-0.00568371831253 -0.00434922171028 0.029999934
-0.00551678677687 -0.00434922171028 0.029999934
-0.00547505389296 -0.00434922171028 0.029999934
-0.00477731012156 -0.00391429953925 0.0269999406
-0.00473975052604 -0.00391429953925 0.0269999406
-0.00470219093052 -0.00391429953925 0.0269999406
-0.00420642885406 -0.00355845412659 0.0245454005455
-0.00354289648686 -0.00326191628271 0.0224999505
-0.0173118763145 -0.00298210764902 0.0207691850769
-0.017282984318 -0.00298210764902 0.0207691850769
-0.0185354350335 -0.00323061661977 0.0224999505
-0.0185041353706 -0.00323061661977 0.0224999505
-0.0184728357076 -0.00323061661977 0.0224999505
-0.0184415360447 -0.00323061661977 0.0224999505
-0.0200497491478 -0.00352430903975 0.0245454005455
-0.020015604061 -0.00352430903975 0.0245454005455
-0.0199814589741 -0.00352430903975 0.0245454005455
-0.0199473138873 -0.00352430903975 0.0245454005455
-0.0199131688005 -0.00352430903975 0.0245454005455
-0.0198448786268 -0.00352430903975 0.0245454005455
-0.0194692826715 -0.00352430903975 0.0245454005455
-0.0194351375847 -0.00352430903975 0.0245454005455
-0.0263007687293 -0.00484592492966 0.03374992575
-0.0262538192349 -0.00484592492966 0.03374992575
-0.023253262441 -0.00430748882636 0.029999934
-0.0232115295571 -0.00430748882636 0.029999934
-0.0231697966732 -0.00430748882636 0.029999934
-0.0231280637892 -0.00430748882636 0.029999934
-0.0230863309053 -0.00430748882636 0.029999934
-0.0230445980214 -0.00430748882636 0.029999934
-0.0230028651375 -0.00430748882636 0.029999934
-0.0229611322536 -0.00430748882636 0.029999934
-0.0229193993697 -0.00430748882636 0.029999934
-0.0228776664857 -0.00430748882636 0.029999934
-0.0228359336018 -0.00430748882636 0.029999934
-0.0227942007179 -0.00430748882636 0.029999934
-0.022752467834 -0.00430748882636 0.029999934
-0.0227107349501 -0.00430748882636 0.029999934
-0.0226690020662 -0.00430748882636 0.029999934
-0.0226272691822 -0.00430748882636 0.029999934
-0.0225855362983 -0.00430748882636 0.029999934
-0.0225438034144 -0.00430748882636 0.029999934
-0.0225020705305 -0.00430748882636 0.029999934
-0.0224603376466 -0.00430748882636 0.029999934
-0.0224186047627 -0.00430748882636 0.029999934
-0.0223768718788 -0.00430748882636 0.029999934
-0.0223351389948 -0.00430748882636 0.029999934
-0.0222934061109 -0.00430748882636 0.029999934
-0.022251673227 -0.00430748882636 0.029999934
-0.0222099403431 -0.00430748882636 0.029999934
-0.0221682074592 -0.00430748882636 0.029999934
-0.0221264745753 -0.00430748882636 0.029999934
-0.0220847416913 -0.00430748882636 0.029999934
-0.0220430088074 -0.00430748882636 0.029999934
-0.0220012759235 -0.00430748882636 0.029999934
-0.0219595430396 -0.00430748882636 0.029999934
-0.0219178101557 -0.00430748882636 0.029999934
-0.0218760772718 -0.00430748882636 0.029999934
-0.0218343443879 -0.00430748882636 0.029999934
-0.0217926115039 -0.00430748882636 0.029999934
-0.02175087862 -0.00430748882636 0.029999934
-0.0195382311625 -0.00387673994373 0.0269999406
-0.0160940613245 -0.00323061661977 0.0224999505
-0.0190875160162 -0.00387673994373 0.0269999406
-0.0173181422006 -0.00352430903975 0.0245454005455
-0.0172839971138 -0.00352430903975 0.0245454005455
-0.0172157069401 -0.00352430903975 0.0245454005455
-0.0171815618533 -0.00352430903975 0.0245454005455
-0.0171474167664 -0.00352430903975 0.0245454005455
-0.023249051593 -0.00484592492966 0.03374992575
-0.0264630315476 -0.00553819991961 0.0385713437143
-0.0307483381538 -0.00646123323954 0.044999901
-0.030685738828 -0.00646123323954 0.044999901
-0.0306231395021 -0.00646123323954 0.044999901
-0.0224978596825 -0.00484592492966 0.03374992575
-0.0296215502881 -0.00646123323954 0.044999901
-0.0295589509622 -0.00646123323954 0.044999901
-0.0293711529846 -0.00646123323954 0.044999901
-0.0293085536587 -0.00646123323954 0.044999901
-0.0291207556811 -0.00646123323954 0.044999901
-0.0290581563553 -0.00646123323954 0.044999901
-0.0289955570294 -0.00646123323954 0.044999901
-0.0289329577035 -0.00646123323954 0.044999901
-0.0288703583776 -0.00646123323954 0.044999901
-0.0288077590518 -0.00646123323954 0.044999901
-0.0287451597259 -0.00646123323954 0.044999901
-0.0286825604 -0.00646123323954 0.044999901
-0.0286199610741 -0.00646123323954 0.044999901
-0.0285573617483 -0.00646123323954 0.044999901
-0.0284947624224 -0.00646123323954 0.044999901
-0.0284321630965 -0.00646123323954 0.044999901
-0.0283695637706 -0.00646123323954 0.044999901
-0.0283069644448 -0.00646123323954 0.044999901
-0.0282443651189 -0.00646123323954 0.044999901
-0.028181765793 -0.00646123323954 0.044999901
-0.0281191664672 -0.00646123323954 0.044999901
-0.0333674038053 -0.00775347988745 0.0539998812
-0.0332922846143 -0.00775347988745 0.0539998812
-0.027680971186 -0.00646123323954 0.044999901
-0.00125446968826 -0.000298210764902 0.00207691850769
-0.0230290113854 -0.00553819991961 0.0385713437143
-0.0229753548204 -0.00553819991961 0.0385713437143
-0.0267419812979 -0.00646123323954 0.044999901
-0.0228680416903 -0.00553819991961 0.0385713437143
-0.0228143851253 -0.00553819991961 0.0385713437143
-0.0227607285603 -0.00553819991961 0.0385713437143
-0.0226534154302 -0.00553819991961 0.0385713437143
-0.0393617800364 -0.00969184985932 0.0674998515
-0.0392678810476 -0.00969184985932 0.0674998515
-0.0391739820588 -0.00969184985932 0.0674998515
-0.03908008307 -0.00969184985932 0.0674998515
-0.0389861840812 -0.00969184985932 0.0674998515
-0.0388922850924 -0.00969184985932 0.0674998515
-0.0387983861036 -0.00969184985932 0.0674998515
-0.0387044871148 -0.00969184985932 0.0674998515
-0.00183859943457 -0.000461516659967 0.00321427864286
-0.00200086696816 -0.000503472719964 0.00350648579221
-0.0307382321187 -0.00775347988745 0.0539998812
-0.0304377553545 -0.00775347988745 0.0539998812
-0.0303626361634 -0.00775347988745 0.0539998812
-0.0302875169724 -0.00775347988745 0.0539998812
-0.00138588980648 -0.000355664215021 0.00247705877064
-0.00138244397203 -0.000355664215021 0.00247705877064
-0.00137899813758 -0.000355664215021 0.00247705877064
-0.049978400347 -0.0129224664791 0.089999802
-0.0498532016952 -0.0129224664791 0.089999802
-0.0497280030435 -0.0129224664791 0.089999802
-0.0496028043917 -0.0129224664791 0.089999802
-0.04947760574 -0.0129224664791 0.089999802
-0.0493524070882 -0.0129224664791 0.089999802
-0.0492272084365 -0.0129224664791 0.089999802
-0.0491020097847 -0.0129224664791 0.089999802
-0.048976811133 -0.0129224664791 0.089999802
-0.0488516124813 -0.0129224664791 0.089999802
-0.0487264138295 -0.0129224664791 0.089999802
-0.0486012151778 -0.0129224664791 0.089999802
-0.048476016526 -0.0129224664791 0.089999802
-0.0721506308562 -0.0193836997186 0.134999703
-0.0719628328785 -0.0193836997186 0.134999703
-0.0717750349009 -0.0193836997186 0.134999703
-0.0715872369233 -0.0193836997186 0.134999703
-0.0713994389457 -0.0193836997186 0.134999703
-0.0472240300085 -0.0129224664791 0.089999802
-0.0470988313568 -0.0129224664791 0.089999802
-0.0469736327051 -0.0129224664791 0.089999802
-0.0700848531023 -0.0193836997186 0.134999703
-0.0698970551247 -0.0193836997186 0.134999703
-0.0697092571471 -0.0193836997186 0.134999703
-0.0695214591695 -0.0193836997186 0.134999703
-0.0693336611919 -0.0193836997186 0.134999703
-0.0691458632142 -0.0193836997186 0.134999703
-0.0689580652366 -0.0193836997186 0.134999703
-0.068770267259 -0.0193836997186 0.134999703
-0.0685824692814 -0.0193836997186 0.134999703
-0.0683946713038 -0.0193836997186 0.134999703
-0.0682068733261 -0.0193836997186 0.134999703
-0.0680190753485 -0.0193836997186 0.134999703
-0.0678312773709 -0.0193836997186 0.134999703
-0.0676434793933 -0.0193836997186 0.134999703
-0.0674556814157 -0.0193836997186 0.134999703
-0.0670800854604 -0.0193836997186 0.134999703
-0.0668922874828 -0.0193836997186 0.134999703
-0.0667044895052 -0.0193836997186 0.134999703
-0.126648251816 -0.0387673994373 0.269999406
-0.126272655861 -0.0387673994373 0.269999406
-0.125897059906 -0.0387673994373 0.269999406
-0.12552146395 -0.0387673994373 0.269999406
-0.125145867995 -0.0387673994373 0.269999406
-0.12477027204 -0.0387673994373 0.269999406
-0.124394676085 -0.0387673994373 0.269999406
-0.124019080129 -0.0387673994373 0.269999406
-0.123643484174 -0.0387673994373 0.269999406
-0.123267888219 -0.0387673994373 0.269999406
-0.122892292264 -0.0387673994373 0.269999406
-0.122516696308 -0.0387673994373 0.269999406
-0.122141100353 -0.0387673994373 0.269999406
-0.0601315602885 -0.0193836997186 0.134999703
-0.0599437623109 -0.0193836997186 0.134999703
-0.039586912252 -0.0129224664791 0.089999802
-0.0394617136003 -0.0129224664791 0.089999802
-0.000848385096756 -0.000285054407627 0.00198528975
-0.000845623361791 -0.000285054407627 0.00198528975
-0.0283755983457 -0.00969184985932 0.0674998515
-0.0224000019123 -0.00775347988745 0.0539998812
-0.0223248827213 -0.00775347988745 0.0539998812
-0.0222497635302 -0.00775347988745 0.0539998812
-0.0184162709568 -0.00646123323954 0.044999901
-0.0269671135135 -0.00969184985932 0.0674998515
-0.0268732145247 -0.00969184985932 0.0674998515
-0.0267793155359 -0.00969184985932 0.0674998515
-0.0266854165471 -0.00969184985932 0.0674998515
-0.0265915175583 -0.00969184985932 0.0674998515
-0.0264976185695 -0.00969184985932 0.0674998515
-0.0264037195807 -0.00969184985932 0.0674998515
-0.0263098205918 -0.00969184985932 0.0674998515
-0.026215921603 -0.00969184985932 0.0674998515
-0.0261220226142 -0.00969184985932 0.0674998515
-0.0112759247572 -0.00430748882636 0.029999934
-0.0112341918733 -0.00430748882636 0.029999934
-0.0164756918547 -0.00646123323954 0.044999901
-0.0164130925288 -0.00646123323954 0.044999901
-0.016350493203 -0.00646123323954 0.044999901
-0.0162878938771 -0.00646123323954 0.044999901
-0.0162252945512 -0.00646123323954 0.044999901
-0.0161626952253 -0.00646123323954 0.044999901
-0.0161000958995 -0.00646123323954 0.044999901
-0.0160374965736 -0.00646123323954 0.044999901
-0.015849698596 -0.00646123323954 0.044999901
-0.0157870992701 -0.00646123323954 0.044999901
-0.0134781428093 -0.00553819991961 0.0385713437143
-0.00711300152994 -0.00298210764902 0.0207691850769
-0.00705521753683 -0.00298210764902 0.0207691850769
-0.00702632554027 -0.00298210764902 0.0207691850769
-0.00699743354371 -0.00298210764902 0.0207691850769
-0.00696854154715 -0.00298210764902 0.0207691850769
-0.0069396495506 -0.00298210764902 0.0207691850769
-0.00691075755404 -0.00298210764902 0.0207691850769
-0.00688186555748 -0.00298210764902 0.0207691850769
-0.00685297356093 -0.00298210764902 0.0207691850769
-0.00682408156437 -0.00298210764902 0.0207691850769
-0.00679518956781 -0.00298210764902 0.0207691850769
-0.00676629757126 -0.00298210764902 0.0207691850769
-0.0067374055747 -0.00298210764902 0.0207691850769
-0.00670851357814 -0.00298210764902 0.0207691850769
-0.00667962158159 -0.00298210764902 0.0207691850769
-0.00943967786493 -0.00430748882636 0.029999934
-0.00939794498102 -0.00430748882636 0.029999934
-0.0093562120971 -0.00430748882636 0.029999934
-0.0258150605599 -0.0129224664791 0.089999802
-0.0192673964311 -0.00969184985932 0.0674998515
-0.0153387979538 -0.00775347988745 0.0539998812
-0.073313626172 -0.0387673994373 0.269999406
-0.00448820264694 -0.00242296246483 0.016874962875
-0.00446472789974 -0.00242296246483 0.016874962875
-0.00444125315253 -0.00242296246483 0.016874962875
-0.00441777840533 -0.00242296246483 0.016874962875
-0.00439430365813 -0.00242296246483 0.016874962875
-0.00437082891093 -0.00242296246483 0.016874962875
-0.00434735416372 -0.00242296246483 0.016874962875
-0.00432387941652 -0.00242296246483 0.016874962875
-0.00430040466932 -0.00242296246483 0.016874962875
-0.00427692992212 -0.00242296246483 0.016874962875
-0.0665528989776 -0.0387673994373 0.269999406
-0.063923727291 -0.0387673994373 0.269999406
-0.00626797868735 -0.00430748882636 0.029999934
-0.00622624580344 -0.00430748882636 0.029999934
-0.00618451291952 -0.00430748882636 0.029999934
-0.00614278003561 -0.00430748882636 0.029999934
-0.00610104715169 -0.00430748882636 0.029999934
-0.00605931426777 -0.00430748882636 0.029999934
-0.00601758138386 -0.00430748882636 0.029999934
-0.00597584849994 -0.00430748882636 0.029999934
-0.00593411561603 -0.00430748882636 0.029999934
-0.00589238273211 -0.00430748882636 0.029999934
-0.0058506498482 -0.00430748882636 0.029999934
-0.00580891696428 -0.00430748882636 0.029999934
-0.00564198542862 -0.00430748882636 0.029999934
-0.00551678677687 -0.00430748882636 0.029999934
-0.00547505389296 -0.00430748882636 0.029999934
-0.00477731012156 -0.00387673994373 0.0269999406
-0.00473975052604 -0.00387673994373 0.0269999406
-0.00470219093052 -0.00387673994373 0.0269999406
-0.00420642885406 -0.00352430903975 0.0245454005455
-0.00354289648686 -0.00323061661977 0.0224999505
-0.0173118763145 -0.00295321565246 0.0207691850769
-0.017282984318 -0.00295321565246 0.0207691850769
-0.0186293340223 -0.00319931695684 0.0224999505
-0.0185980343594 -0.00319931695684 0.0224999505
-0.0185667346965 -0.00319931695684 0.0224999505
-0.0185354350335 -0.00319931695684 0.0224999505
-0.0185041353706 -0.00319931695684 0.0224999505
-0.0184728357076 -0.00319931695684 0.0224999505
-0.0184415360447 -0.00319931695684 0.0224999505
-0.0200497491478 -0.00349016395291 0.0245454005455
-0.020015604061 -0.00349016395291 0.0245454005455
-0.0199814589741 -0.00349016395291 0.0245454005455
-0.0199473138873 -0.00349016395291 0.0245454005455
-0.0199131688005 -0.00349016395291 0.0245454005455
-0.0198790237136 -0.00349016395291 0.0245454005455
-0.0198448786268 -0.00349016395291 0.0245454005455
-0.0216415685118 -0.0038391803482 0.0269999406
-0.0194692826715 -0.00349016395291 0.0245454005455
-0.0213410917476 -0.0038391803482 0.0269999406
-0.0213035321521 -0.0038391803482 0.0269999406
-0.0212659725566 -0.0038391803482 0.0269999406
-0.2115329377 -0.038391803482 0.269999406
-0.0263007687293 -0.00479897543525 0.03374992575
-0.0262538192349 -0.00479897543525 0.03374992575
-0.023253262441 -0.00426575594245 0.029999934
-0.0232115295571 -0.00426575594245 0.029999934
-0.0231697966732 -0.00426575594245 0.029999934
-0.0231280637892 -0.00426575594245 0.029999934
